0 0 0 0 0 0 0 0 0 0 0 0 0 0 0 0 0 0 0 0 0 0 0 0 0 0 0 0 0 0 0 0 0 0 0 0 0 0 0 0 0 0 0 0 0 0 0 0 0 0 0 0 0 0 0 0 0 0 0 0 0 0 0 0 455 738 929 751 1144 900 1049 1577 1468 1390 1425 1457 1446 1278 1223 1215 1250 1229 1085 1094 994 1135 1251 1382 1419 1459 1412 1356 1276 1159 1090 1123 1153 1091 1055 1029 1054 1084 1100 1115 1106 1079 1050 1009 978 952 930 927 925 933 926 916 922 922 912 901 927 942 939 924 939 940 939 937 963 1005 995 956 928 932 948 969 981 1038 1053 1048 1041 1024 1036 1132 1043 1016 1087 1127 1185 1215 1291 1341 1344 1304 1225 1201 1222 1150 1110 1043 992 969 988 948 962 921 905 935 883 899 853 836 780 712 601 625 544 549 566 527 523 598 587 481 590 519 592 592 580 596 606 609 478 452 437 435 532 433 408 389 383 382 378 371 370 376 384 395 409 414 393 401 428 423 447 506 560 507 532 541 564 565 580 593 591 610 609 618 612 625 642 668 861 865 852 898 849 827 685 615 597 576 575 566 572 598 620 654 756 1131 1511 1228 1110 1175 1183 1165 1236 1186 1173 1093 972 918 887 844 888 826 813 814 884 895 945 931 847 826 840 916 890 808 764 742 694 674 669 658 656 647 572 531 515 504 495 479 467 470 503 563 582 476 403 468 470 377 379 404 413 339 269 220 198 165 142 127 150 151 150 116 69 72 128 187 100 110 122 127 127 133 145 145 97 0 0 0 0 0 0 0 0 0 0 0 0 484 27 0 0 0 0 0 0 0 0 56 265 180 506 0 0 0 0 0 94 0 18 105 316 799 775 1441 1364 849 752 825 409 292 127 81 91 142 218 326 532 1338 1486 726 374 352 383 395 350 452 565 688 427 835 1153 851 436 291 276 298
0 0 0 0 0 0 0 0 0 0 0 0 0 0 0 0 0 0 0 0 0 0 0 0 0 0 0 0 0 0 0 0 0 0 0 0 0 0 0 0 0 0 0 0 0 0 0 0 0 0 0 0 0 0 0 0 0 0 0 0 0 0 0 0 370 469 620 636 838 835 788 1277 1540 1749 1545 1588 1478 1285 1475 1287 1164 1091 1168 1172 1053 1037 1145 1291 1351 1419 1462 1421 1323 1273 1200 1147 1095 1063 1067 1067 1059 1099 1113 1128 1129 1093 1066 1014 952 939 932 929 926 918 909 904 912 914 904 902 922 931 933 931 935 952 997 933 944 980 958 924 929 940 956 970 986 1020 1075 1074 1063 1043 1031 1053 1002 1027 1076 1102 1145 1190 1257 1309 1470 1402 1384 1266 1220 1166 1136 1045 986 994 1005 1002 995 1030 992 961 964 917 888 735 616 590 582 582 567 598 601 637 567 580 521 559 609 591 600 601 598 602 551 483 458 456 453 455 442 414 401 391 383 380 378 375 397 391 393 422 442 455 418 398 401 436 491 544 550 543 569 545 570 578 583 572 618 593 597 623 676 632 639 680 889 853 866 886 759 707 663 612 618 614 613 615 603 584 607 628 732 941 1181 1246 1429 1294 1413 1293 1399 1497 1208 1154 1030 910 842 799 789 777 775 770 798 809 827 871 868 866 773 841 878 878 874 798 741 716 702 687 703 699 577 550 552 543 540 522 514 514 521 554 569 542 467 491 518 462 392 310 308 278 249 199 189 165 148 127 137 151 149 96 45 55 128 153 101 131 152 166 166 128 143 150 6 0 0 0 0 0 0 0 0 0 0 0 0 828 0 0 0 0 0 0 0 0 0 0 0 64 111 0 0 0 0 0 0 0 0 298 283 730 1054 1573 964 398 729 909 481 235 156 62 132 147 210 306 433 1026 1229 508 410 375 359 391 410 452 775 557 731 1196 1086 627 373 270 312 295
0 0 0 0 0 0 0 0 0 0 0 0 0 0 0 0 0 0 0 0 0 0 0 0 0 0 0 0 0 0 0 0 0 0 0 0 0 0 0 0 0 0 0 0 0 0 0 0 0 0 0 0 0 0 0 0 0 0 0 0 0 0 0 0 267 409 645 658 709 686 793 1055 1345 1584 1474 1485 1407 1376 1464 1441 1226 1148 1206 1252 1071 1150 1074 1127 1283 1343 1383 1357 1318 1343 1224 1172 1104 1080 1085 1091 1093 1159 1152 1136 1156 1105 1068 1036 954 961 947 942 936 926 908 902 903 903 900 908 916 921 925 929 939 940 980 945 937 950 928 923 932 938 957 980 1003 1029 1056 1060 1051 1044 1040 1064 1023 1029 1053 1079 1112 1167 1262 1264 1309 1335 1389 1336 1240 1183 1081 1023 1002 966 1011 1043 1043 1040 1007 996 962 943 860 708 600 632 592 638 617 616 584 597 559 561 556 574 603 596 602 595 599 572 556 563 575 546 455 444 423 411 405 400 385 381 380 392 443 394 425 440 437 447 442 404 426 501 512 569 578 569 611 583 555 589 589 557 586 604 639 604 604 619 642 704 756 796 848 910 783 629 666 656 632 626 620 610 571 563 580 622 778 918 1039 1372 2085 1577 1862 1562 1316 1269 1215 1121 976 884 808 762 738 732 723 699 694 722 744 769 789 784 736 756 802 830 836 813 790 771 744 720 760 802 597 598 632 668 688 661 576 577 572 564 610 578 533 548 579 560 500 424 477 317 206 209 189 173 154 136 148 174 125 56 17 25 66 111 100 128 152 145 140 143 174 158 0 0 0 0 0 0 0 0 0 0 0 0 0 275 0 0 0 0 0 0 0 0 0 0 184 0 0 0 0 0 0 0 0 0 0 0 362 595 1309 1242 638 287 826 1105 461 200 150 65 118 135 196 241 367 637 954 470 466 394 375 413 397 489 804 789 1045 1022 906 479 318 275 318 271
0 0 0 0 0 0 0 0 0 0 0 0 0 0 0 0 0 0 0 0 0 0 0 0 0 0 0 0 0 0 0 0 0 0 0 0 0 0 0 0 0 0 0 0 0 0 0 0 0 0 0 0 0 0 0 0 0 0 0 0 0 0 0 33 397 284 406 727 482 505 798 964 1287 1791 1441 1382 1357 1391 1415 1235 1192 1239 1227 1211 1177 1176 1124 1110 1087 1106 1191 1218 1235 1283 1273 1226 1131 1107 1098 1097 1166 1214 1187 1167 1133 1044 1144 980 1029 1002 968 960 950 946 932 908 901 906 912 914 917 921 936 947 955 958 942 934 932 930 918 923 931 939 948 1001 1050 1070 1061 1059 1061 1062 1062 1047 1021 1040 1057 1106 1115 1147 1235 1372 1366 1360 1383 1329 1280 1121 1044 957 933 945 974 1014 1106 1090 1053 1016 961 890 887 839 636 595 617 613 611 660 593 588 577 578 581 575 573 576 605 595 580 611 616 616 599 509 453 439 426 427 440 436 413 395 384 401 417 398 432 447 436 450 433 428 418 473 550 596 596 587 571 565 561 566 596 569 590 634 594 589 596 614 648 776 801 796 808 773 652 610 591 597 682 637 602 560 537 555 576 608 708 812 981 1221 1454 1367 1341 1171 1219 1177 1147 1082 993 854 774 743 712 693 680 656 649 667 677 679 699 699 688 700 726 751 772 792 813 825 797 785 826 892 813 637 809 1074 1025 930 662 635 669 601 600 597 588 585 622 618 472 353 320 246 225 237 197 174 152 150 228 208 158 74 30 101 31 43 96 131 163 170 167 167 198 195 0 0 0 0 0 0 0 0 0 0 0 0 0 452 0 0 0 0 0 0 0 0 0 0 0 0 0 0 0 0 0 0 0 0 0 119 335 720 1357 1360 705 216 530 917 465 262 58 43 85 147 215 329 453 811 1523 522 518 422 403 441 549 638 1192 1104 1262 983 586 336 293 264 334 290
0 0 0 0 0 0 0 0 0 0 0 0 0 0 0 0 0 0 0 0 0 0 0 0 0 0 0 0 0 0 0 0 0 0 0 0 0 0 0 0 0 0 0 0 0 0 0 0 0 0 0 0 0 0 0 0 0 0 0 0 0 0 0 0 174 347 481 578 429 631 776 1554 1638 1637 1485 1521 1451 1390 1371 1308 1318 1319 1230 1205 1204 1238 1160 1198 1189 1207 1228 1244 1217 1268 1283 1209 1163 1140 1130 1123 1239 1240 1197 1168 1059 960 951 991 1040 1039 1022 984 968 960 934 929 907 913 913 916 934 936 955 973 1002 1030 992 962 941 927 917 923 930 938 959 1033 1093 1169 1106 1087 1102 1120 1111 1100 1041 1044 1063 1107 1159 1147 1183 1270 1413 1398 1347 1314 1213 1178 1107 991 966 889 969 975 1008 1057 1015 984 952 919 934 932 798 613 623 616 610 609 605 583 594 570 558 575 562 565 531 544 570 565 581 565 512 454 448 438 452 456 451 450 430 433 393 447 444 419 419 453 454 437 451 428 438 545 567 609 602 592 572 548 579 588 629 607 598 602 588 634 627 622 645 695 827 872 727 700 676 604 590 568 634 593 546 519 526 552 584 614 678 815 890 1006 1127 1109 1086 995 1076 1099 1220 1117 944 873 783 741 709 668 654 642 644 646 644 641 645 637 636 644 652 668 697 749 814 860 835 844 922 1101 1189 1115 1004 1204 1149 889 723 685 852 754 615 611 614 664 637 651 581 315 243 245 342 266 183 172 163 164 157 108 175 61 77 50 32 65 129 151 162 179 192 197 213 147 0 0 0 0 0 0 0 0 0 0 0 0 291 808 0 0 0 0 0 0 0 0 0 75 0 0 0 0 0 0 0 0 0 0 0 0 116 785 994 1213 390 192 465 1075 456 199 81 66 102 130 199 299 440 787 1624 549 566 482 489 589 989 880 1254 1300 922 732 409 292 272 325 347 322
0 0 0 0 0 0 0 0 0 0 0 0 0 0 0 0 0 0 0 0 0 0 0 0 0 0 0 0 0 0 0 0 0 0 0 0 0 0 0 0 0 0 0 0 0 0 0 0 0 0 0 0 0 0 0 0 0 0 0 0 0 0 0 0 76 366 303 322 444 669 1197 1667 1270 1363 1301 1504 1590 1422 1311 1375 1408 1414 1260 1295 1184 1271 1217 1248 1201 1297 1356 1368 1285 1319 1319 1240 1204 1195 1207 1204 1321 1247 1188 1127 1055 1001 998 1022 1039 1041 1021 1011 1017 990 955 919 917 911 912 921 936 946 961 978 1017 1046 1046 1019 982 919 920 927 933 944 974 1044 1168 1199 1134 1110 1121 1128 1143 1132 1077 1048 1083 1103 1128 1158 1211 1219 1323 1365 1342 1330 1269 1226 1062 1000 918 868 780 919 984 993 1009 982 957 894 885 865 777 639 621 647 628 608 602 578 579 600 608 590 573 574 597 541 523 494 491 471 457 452 448 454 459 455 452 463 459 440 402 410 448 431 418 445 542 451 445 446 523 573 578 610 603 599 593 574 576 606 591 577 577 590 598 609 616 641 732 708 780 779 725 799 733 750 704 607 552 526 510 510 531 589 609 638 655 815 907 938 1055 976 956 940 1043 1182 1178 1076 923 905 823 774 766 720 638 634 644 636 625 613 604 598 605 600 600 615 642 687 772 836 831 858 974 1229 1542 1202 964 875 961 846 779 731 901 937 775 649 644 704 645 447 336 269 322 323 311 182 176 187 230 267 235 143 112 122 130 73 59 121 160 176 180 200 216 211 125 0 0 0 0 0 0 0 0 0 0 0 0 0 347 148 0 0 0 0 0 0 20 0 0 0 0 0 0 0 0 0 0 0 0 0 0 0 75 496 730 739 235 241 593 938 346 198 101 52 88 120 187 267 498 843 1299 558 563 572 744 1070 1167 1102 1218 1190 867 469 299 283 319 358 365 364
0 0 0 0 0 0 0 0 0 0 0 0 0 0 0 0 0 0 0 0 0 0 0 0 0 0 0 0 0 0 0 0 0 0 0 0 0 0 0 0 0 0 0 0 0 0 0 0 0 0 0 0 0 0 0 0 0 0 0 0 0 0 0 0 183 320 219 471 662 939 1392 1466 1091 1090 1093 1535 1498 1348 1329 1501 1541 1377 1319 1351 1216 1232 1245 1366 1271 1234 1321 1360 1365 1372 1358 1324 1229 1228 1214 1178 1185 1152 1178 1189 1100 1054 1044 1042 1033 1021 1035 1070 1057 1023 981 931 908 909 910 917 930 944 961 975 1000 1051 1067 1064 976 912 936 964 995 995 1016 1059 1118 1141 1105 1112 1146 1129 1190 1150 1157 1079 1103 1119 1118 1142 1179 1225 1322 1346 1389 1396 1400 1363 1131 961 857 850 797 700 880 949 966 974 836 892 898 776 719 684 636 615 609 608 623 582 594 610 610 618 598 574 587 543 571 575 546 464 460 458 455 453 454 453 452 469 451 414 428 420 447 445 422 436 472 458 460 504 598 571 551 589 609 608 608 585 575 576 577 572 590 583 593 601 645 734 763 754 679 667 786 733 708 854 841 658 566 512 504 501 525 619 632 647 668 747 850 895 893 848 782 913 1041 1124 1049 955 884 904 895 854 810 754 671 625 623 617 608 587 568 574 586 582 586 597 610 626 721 799 797 796 847 1056 1249 1076 930 818 933 909 894 871 903 895 779 629 534 502 433 307 349 358 429 359 205 150 157 201 287 277 172 142 134 170 165 56 101 144 169 184 200 205 219 165 0 0 0 0 0 0 0 0 0 0 0 0 0 0 347 201 0 0 0 0 0 0 61 0 0 0 0 0 0 0 0 0 0 0 0 0 0 0 58 517 412 425 201 293 508 737 360 182 127 55 78 114 156 239 453 1244 981 663 594 675 984 944 1109 1139 1049 956 740 357 266 304 350 351 355 352
0 0 0 0 0 0 0 0 0 0 0 0 0 0 0 0 0 0 0 0 0 0 0 0 0 0 0 0 0 0 0 0 0 0 0 0 0 0 0 0 0 0 0 0 0 0 0 0 0 0 0 0 0 0 0 0 0 0 0 0 0 0 0 0 36 103 168 687 558 856 1244 1142 1150 1240 1276 1554 1444 1312 1445 1574 1453 1351 1380 1357 1223 1231 1257 1340 1315 1227 1283 1378 1368 1362 1374 1357 1300 1284 1276 1213 1139 1092 1115 1115 1082 1076 1065 1053 1032 1047 1079 1089 1081 1051 1008 950 908 906 909 911 919 929 953 981 991 1044 1064 1075 976 946 1003 1048 1053 1041 1078 1073 1107 1102 1083 1070 1084 1054 1160 1115 1123 1127 1211 1187 1177 1191 1174 1216 1337 1394 1379 1332 1309 1323 1309 1447 1080 841 719 615 858 980 891 965 786 883 849 838 722 754 656 609 606 606 601 636 571 599 607 596 579 528 537 535 533 503 487 468 461 459 457 454 465 464 481 456 429 442 442 425 473 447 439 429 448 513 511 503 598 558 572 542 589 595 608 602 593 584 573 579 602 599 599 602 606 733 674 679 840 704 654 632 745 826 848 632 608 513 491 493 583 643 653 666 685 738 776 777 757 759 888 921 980 1120 1100 942 865 907 923 894 849 784 708 626 608 602 589 576 563 565 574 576 581 588 596 626 735 808 747 713 699 840 990 987 928 758 814 962 1015 1023 978 974 767 538 463 370 305 294 307 322 407 290 258 173 182 222 316 273 183 156 164 164 84 64 147 159 178 191 206 203 190 151 22 0 0 0 0 0 0 0 0 0 0 0 0 0 228 226 0 0 0 0 0 0 0 0 0 0 0 0 0 0 0 0 0 0 0 0 94 15 119 485 375 269 172 183 448 683 282 132 112 51 80 104 132 201 408 960 1059 565 621 945 1027 1054 1179 1044 872 809 484 296 261 302 335 325 334 355
0 0 0 0 0 0 0 0 0 0 0 0 0 0 0 0 0 0 0 0 0 0 0 0 0 0 0 0 0 0 0 0 0 0 0 0 0 0 0 0 0 0 0 0 0 0 0 0 0 0 0 0 0 0 0 0 0 0 0 0 0 0 0 0 0 94 335 364 553 690 1061 1109 1240 1238 1360 1486 1415 1326 1353 1475 1427 1381 1349 1323 1250 1255 1291 1304 1274 1234 1262 1338 1411 1406 1390 1420 1429 1394 1331 1188 1047 1047 1028 1031 1078 1092 1058 1055 1092 1128 1126 1122 1108 1075 1025 944 902 904 906 910 914 928 950 991 1046 1008 1023 984 911 1007 1080 1146 1102 1072 1055 1059 1074 1055 1042 1017 1045 1024 1053 1071 1104 1198 1244 1342 1301 1215 1214 1293 1468 1435 1369 1399 1346 1299 1360 1550 1285 981 767 598 648 920 998 804 708 807 863 735 878 868 667 605 601 597 595 618 583 580 579 572 532 510 511 503 495 500 527 526 522 470 472 520 558 484 494 450 440 487 471 452 522 454 486 433 443 505 516 593 612 596 594 583 546 571 632 611 602 595 609 608 596 605 607 603 618 643 597 603 717 620 572 567 717 790 691 708 662 509 476 503 585 637 668 691 711 735 745 793 847 876 914 920 917 1039 1259 1119 867 833 886 912 886 802 715 622 609 600 579 573 562 561 567 574 581 584 587 604 653 681 656 654 671 752 883 907 802 642 755 964 1013 997 898 732 745 879 649 512 327 356 324 312 291 264 198 217 273 202 155 140 144 194 151 123 87 41 127 174 196 202 220 232 217 166 49 0 0 0 0 0 0 0 0 0 0 0 0 0 0 0 0 0 0 0 0 0 0 0 0 0 0 0 0 0 0 0 0 0 18 0 0 18 419 567 410 260 171 147 298 716 270 221 205 70 75 84 110 159 324 859 1065 600 806 842 986 1080 960 933 657 460 390 261 249 271 295 324 338 330
0 0 0 0 0 0 0 0 0 0 0 0 0 0 0 0 0 0 0 0 0 0 0 0 0 0 0 0 0 0 0 0 0 0 0 0 0 0 0 0 0 0 0 0 0 0 0 0 0 0 0 0 0 0 0 0 0 0 0 0 0 0 0 0 0 114 266 512 548 878 1218 1527 1304 1538 1602 1718 1462 1396 1348 1434 1533 1389 1397 1413 1324 1287 1384 1334 1262 1249 1258 1344 1506 1502 1490 1476 1521 1399 1302 1124 1109 1194 1007 952 1032 1062 1012 1049 1221 1217 1169 1162 1143 1107 1063 938 904 907 906 907 927 954 977 998 1053 1024 893 884 852 995 1108 1185 1213 1166 1063 1034 1009 993 1138 1122 1048 1028 1086 1119 1183 1202 1252 1381 1338 1195 1214 1303 1434 1410 1410 1498 1419 1346 1412 1466 1493 1287 939 653 564 655 757 728 804 910 845 729 783 709 623 608 598 624 631 614 608 586 563 537 613 534 597 637 577 597 665 664 649 564 520 559 558 553 613 475 503 490 496 499 488 504 531 448 469 558 584 615 633 653 651 607 562 657 579 599 610 609 609 609 609 610 610 608 635 609 594 592 586 552 546 527 768 717 632 561 518 468 470 518 586 641 682 713 740 772 788 826 882 902 899 891 892 935 1047 1045 914 830 809 885 900 793 683 619 608 604 591 579 564 557 570 585 598 586 584 586 588 591 601 616 618 656 826 900 850 634 676 826 905 1009 1045 869 686 815 655 507 335 324 307 339 292 360 304 271 298 242 153 135 126 205 132 106 49 120 206 201 194 184 215 227 208 148 28 0 0 0 0 0 0 0 0 0 0 0 0 0 162 0 0 0 0 0 0 0 0 0 0 0 0 92 95 0 0 101 26 23 0 0 0 63 237 258 241 158 300 177 230 646 433 275 243 126 47 62 90 104 234 622 983 739 677 1023 1044 950 785 674 408 367 317 222 254 257 283 323 319 300
0 0 0 0 0 0 0 0 0 0 0 0 0 0 0 0 0 0 0 0 0 0 0 0 0 0 0 0 0 0 0 0 0 0 0 0 0 0 0 0 0 0 0 0 0 0 0 0 0 0 0 0 0 0 0 0 0 0 0 0 0 0 0 0 0 174 355 432 458 761 1267 1550 1429 1536 1695 1627 1433 1343 1349 1490 1553 1494 1458 1397 1347 1376 1372 1324 1284 1270 1270 1293 1383 1466 1475 1495 1560 1446 1144 1030 992 984 925 910 945 1006 964 1074 1276 1248 1146 1203 1147 1094 1080 978 920 917 917 915 918 952 992 1016 1044 969 805 800 751 994 1093 1175 1252 1257 1120 1062 1030 981 1104 1194 1234 1111 1107 1106 1111 1135 1209 1262 1199 1168 1199 1331 1586 1444 1480 1493 1432 1306 1300 1267 1242 1290 1227 928 725 562 573 595 756 872 828 730 652 615 600 605 590 597 624 619 605 584 557 548 604 602 733 653 566 772 753 786 639 717 605 615 571 584 568 502 489 546 532 514 532 534 545 505 494 594 623 637 654 656 638 611 608 634 570 598 610 627 619 629 615 610 609 647 607 597 589 572 532 516 532 505 541 615 586 512 464 457 472 524 588 651 700 730 752 769 781 800 818 820 820 821 838 860 871 923 902 926 838 797 832 748 681 617 606 608 603 593 567 558 584 595 606 588 602 600 593 593 604 621 620 577 587 654 710 597 599 690 781 947 963 978 848 721 612 596 396 301 359 317 361 327 302 299 272 143 153 111 95 148 103 49 20 107 145 168 194 154 207 228 218 151 0 0 0 0 0 0 0 0 0 0 0 0 0 0 0 0 0 0 0 0 0 0 0 0 0 0 0 26 60 0 175 99 153 157 136 60 0 91 65 97 95 174 297 185 170 666 527 302 270 176 46 52 72 81 236 492 999 1241 902 829 813 614 488 391 337 290 215 187 226 259 306 316 310 294
0 0 0 0 0 0 0 0 0 0 0 0 0 0 0 0 0 0 0 0 0 0 0 0 0 0 0 0 0 0 0 0 0 0 0 0 0 0 0 0 0 0 0 0 0 0 0 0 0 0 0 0 0 0 0 0 0 0 0 0 0 0 0 0 0 47 227 480 342 646 1260 1417 1087 1431 1671 1688 1651 1483 1475 1419 1567 1505 1453 1385 1421 1425 1355 1373 1329 1308 1307 1296 1314 1368 1387 1500 1588 1404 1160 1077 1038 978 907 912 899 978 933 986 1121 1120 1095 1221 1097 1050 1078 1025 979 982 968 943 938 937 997 1034 1069 979 785 660 660 1129 1217 1180 1224 1259 1195 1103 1037 974 1107 1182 1338 1152 1109 1262 1191 1270 1161 1111 1165 1173 1224 1323 1410 1320 1318 1378 1374 1223 1242 1065 958 1133 1421 1133 832 705 589 542 754 803 847 912 749 601 591 606 600 598 720 611 631 590 584 591 678 733 911 727 615 824 700 630 767 908 723 667 668 674 616 571 582 565 547 594 552 514 479 444 471 608 626 649 660 650 616 614 624 669 581 603 613 639 649 648 634 609 602 591 590 597 604 574 535 467 479 473 465 542 565 472 455 454 464 516 586 655 709 735 750 759 767 775 769 741 735 750 772 794 818 846 872 907 846 731 707 689 648 602 603 609 612 610 573 550 599 608 607 597 626 622 599 595 603 617 625 557 520 550 634 680 561 560 581 715 727 799 915 813 629 573 458 313 332 333 341 310 287 315 259 165 177 119 61 74 58 17 0 0 0 65 117 140 191 236 217 137 0 0 0 0 0 0 0 0 0 0 0 0 0 0 0 0 0 0 0 0 0 0 0 0 0 0 0 171 112 0 0 0 144 241 365 129 5 133 103 81 76 137 251 175 188 457 402 255 315 211 56 48 61 69 155 324 806 868 685 422 383 315 325 311 298 185 171 190 186 263 302 313 316 300
0 0 0 0 0 0 0 0 0 0 0 0 0 0 0 0 0 0 0 0 0 0 0 0 0 0 0 0 0 0 0 0 0 0 0 0 0 0 0 0 0 0 0 0 0 0 0 0 0 0 0 0 0 0 0 0 0 0 0 0 0 0 0 0 0 9 197 246 334 791 1144 1000 1073 1499 1633 1570 1516 1408 1477 1474 1400 1482 1542 1631 1473 1406 1359 1384 1363 1348 1332 1345 1343 1364 1443 1522 1550 1381 1125 1213 1177 1063 921 886 869 879 882 960 1031 1059 1025 1123 1049 1018 1049 1080 1070 1045 1048 996 978 962 955 998 1075 1093 925 647 596 892 1112 1169 1246 1292 1171 1060 1022 964 1086 1315 1362 1398 1132 1242 1177 1189 1256 1124 1156 1206 1251 1343 1373 1228 1230 1214 1236 1230 1055 984 874 888 1007 1126 1213 849 869 609 599 585 650 778 764 599 564 575 571 575 743 578 593 589 609 671 719 819 879 796 613 684 672 736 867 778 643 687 772 857 718 594 620 586 577 582 607 525 548 451 500 559 580 644 657 627 619 618 641 641 592 603 616 634 651 649 618 616 598 581 615 562 548 587 582 464 446 441 436 491 520 461 454 450 454 506 583 650 697 724 739 752 759 768 763 740 721 707 724 745 767 790 818 869 851 765 713 679 636 592 619 618 613 626 589 530 557 654 680 614 611 609 584 586 591 575 553 509 477 510 571 568 502 491 569 634 586 596 621 658 530 523 379 303 323 313 337 304 293 265 213 161 158 168 129 71 37 0 0 0 0 26 94 136 177 248 222 112 0 0 0 0 0 0 0 0 0 0 0 0 0 0 0 0 0 0 0 0 0 0 0 0 0 18 0 167 27 0 119 195 151 652 281 267 20 204 181 107 100 217 352 231 204 316 307 245 350 203 83 38 57 69 81 237 429 490 444 323 257 232 233 258 200 152 162 200 233 285 305 314 313 298
0 0 0 0 0 0 0 0 0 0 0 0 0 0 0 0 0 0 0 0 0 0 0 0 0 0 0 0 0 0 0 0 0 0 0 0 0 0 0 0 0 0 0 0 0 0 0 0 0 0 0 0 0 0 0 0 0 0 0 0 0 0 0 0 0 0 69 227 370 937 1393 964 1160 1352 1634 1688 1503 1739 1443 1621 1587 1565 1496 1529 1489 1440 1435 1376 1408 1362 1367 1354 1357 1371 1454 1477 1471 1321 1152 1215 1046 1153 921 927 871 845 798 938 1130 1062 939 987 1008 972 1031 1082 1095 1103 1137 1071 1028 993 986 986 1024 881 802 853 604 582 771 1131 1210 1208 1107 1044 992 951 1045 1263 1308 1308 1174 1103 1098 1107 1148 1127 1218 1276 1242 1331 1294 1351 1297 1291 1185 1020 980 901 840 782 850 1203 1748 1506 1450 786 673 717 619 566 582 592 588 581 586 583 586 647 628 629 603 860 875 744 637 627 614 686 756 658 764 725 768 596 813 859 769 720 672 608 607 597 556 525 521 507 532 597 612 648 640 635 627 622 624 616 604 605 619 638 664 635 598 585 572 560 540 518 458 483 475 427 431 430 426 461 475 451 451 442 455 505 583 641 676 699 728 751 751 776 828 841 762 696 694 701 716 748 767 792 789 760 740 770 684 591 629 627 634 667 621 584 512 582 637 613 606 587 565 575 578 535 501 465 435 449 464 464 447 500 588 645 599 651 533 636 599 397 304 355 321 307 326 296 326 290 284 188 151 166 132 200 114 0 0 0 0 0 10 129 240 257 214 84 0 0 0 0 0 0 0 0 0 0 0 0 0 0 0 0 0 0 0 0 0 0 0 0 27 0 113 204 201 256 208 627 342 568 271 106 0 254 126 91 109 274 452 174 142 282 250 204 324 222 94 30 50 59 58 82 128 148 199 233 298 285 239 122 122 134 158 225 239 263 281 313 322 292
0 0 0 0 0 0 0 0 0 0 0 0 0 0 0 0 0 0 0 0 0 0 0 0 0 0 0 0 0 0 0 0 0 0 0 0 0 0 0 0 0 0 0 0 0 0 0 0 0 0 0 0 0 0 0 0 0 0 0 0 0 0 0 0 0 0 0 133 373 708 1113 806 863 1175 1473 1979 1639 2001 1583 1534 1623 1783 1535 1609 1526 1481 1460 1464 1499 1395 1370 1375 1434 1485 1531 1540 1482 1209 1067 1065 1067 907 1145 988 976 934 811 894 1026 1089 959 1070 948 937 993 1015 1064 1140 1232 1180 1066 1021 1010 989 960 754 945 889 745 625 576 646 1032 1177 1165 1062 1045 942 996 1211 1179 1145 1110 1089 1098 1126 1177 1157 1161 1174 1204 1234 1285 1276 1294 1245 1148 972 987 909 904 1156 998 1057 1338 1417 1373 912 946 834 649 611 583 606 606 596 634 599 690 597 628 603 589 755 866 877 968 824 838 768 889 711 1147 1001 889 665 706 904 905 828 733 674 605 563 581 572 534 538 603 611 635 648 646 645 641 626 626 626 622 611 623 622 659 609 605 605 569 522 481 444 432 425 416 413 436 425 438 459 460 438 449 431 451 488 579 630 649 665 684 703 719 759 823 832 737 673 675 680 688 699 715 732 737 720 692 679 641 584 553 589 627 648 622 608 538 485 527 550 555 544 533 538 534 504 471 439 413 405 403 429 409 468 550 514 356 372 457 559 505 365 331 320 312 303 305 287 285 236 308 310 255 183 279 234 172 46 0 0 0 0 0 133 277 258 182 0 0 0 0 0 0 0 0 0 0 0 0 0 0 0 0 0 0 0 0 0 0 0 42 12 88 191 157 374 423 324 380 358 409 388 410 93 0 34 167 94 145 375 434 170 59 291 159 215 271 202 94 29 42 49 42 38 37 53 147 224 284 241 209 105 96 144 190 233 218 253 304 313 309 291
0 0 0 0 0 0 0 0 0 0 0 0 0 0 0 0 0 0 0 0 0 0 0 0 0 0 0 0 0 0 0 0 0 0 0 0 0 0 0 0 0 0 0 0 0 0 0 0 0 0 0 0 0 0 0 0 0 0 0 0 0 0 0 0 0 0 0 34 223 381 706 763 1101 1148 1350 1805 1745 1935 1655 1990 2020 1775 1723 1609 1605 1688 1508 1506 1491 1480 1445 1411 1399 1448 1500 1593 1514 1227 1045 985 1057 1168 1403 1183 1056 899 849 787 855 920 915 963 898 918 935 985 1073 1177 1293 1200 1101 1061 1024 909 805 914 990 917 825 710 573 525 619 890 1135 1071 1044 957 1018 1165 1140 1128 1113 1122 1162 1164 1173 1296 1223 1220 1200 1252 1285 1225 1262 1254 1189 1151 1364 1394 1405 1461 1427 1581 1289 1420 1162 1257 1013 789 663 614 617 655 622 602 589 740 709 691 597 873 606 760 1017 881 947 904 812 769 789 924 1179 1086 932 605 646 868 914 890 742 657 583 584 567 572 575 573 613 626 638 723 658 649 644 634 627 629 637 661 627 613 599 579 571 608 611 493 456 440 433 423 420 427 425 426 433 457 456 422 414 422 435 438 516 598 624 636 646 654 677 723 768 765 690 661 669 680 675 663 664 681 688 668 644 633 608 579 524 538 569 579 588 596 547 479 454 470 484 486 491 505 501 478 448 420 395 380 377 390 363 368 444 479 391 313 361 313 306 356 306 299 307 306 227 148 183 198 437 307 307 248 310 277 175 72 23 0 0 0 0 9 182 207 143 0 0 0 0 0 0 0 0 0 0 0 0 0 0 0 0 0 0 0 0 0 0 0 80 170 489 160 260 516 173 144 456 335 372 306 273 63 74 0 86 108 219 482 256 119 13 193 122 213 239 200 118 31 39 34 25 16 40 113 164 172 238 210 204 95 118 161 190 226 203 269 303 321 299 276
0 0 0 0 0 0 0 0 0 0 0 0 0 0 0 0 0 0 0 0 0 0 0 0 0 0 0 0 0 0 0 0 0 0 0 0 0 0 0 0 0 0 0 0 0 0 0 0 0 0 0 0 0 0 0 0 0 0 0 0 0 0 0 0 0 0 0 0 76 364 470 774 947 953 1334 1893 1937 2294 2044 1744 1967 2293 2050 1850 1586 1694 1621 1593 1506 1536 1508 1486 1462 1479 1536 1678 1498 1294 1108 1010 1052 1114 1380 1191 1071 968 863 821 768 819 887 886 849 897 895 962 1085 1200 1349 1246 1154 1079 1021 920 832 978 1015 991 906 863 684 585 499 684 819 1150 1142 953 1043 1177 1234 1145 1130 1144 1197 1259 1161 1212 1269 1284 1258 1387 1190 1162 1211 1199 1192 1358 1603 1539 1542 1493 1530 1583 1361 1223 1264 1232 975 876 745 607 596 663 612 641 714 701 807 907 689 843 756 765 1216 1156 966 1125 999 830 898 1031 1073 982 638 665 814 873 894 831 755 704 653 581 575 572 608 635 649 639 647 661 658 657 658 665 641 629 639 658 618 604 576 569 558 533 519 466 445 438 434 426 417 455 474 409 413 453 453 402 393 413 437 443 453 586 592 583 597 598 621 683 742 757 737 698 666 687 650 625 615 640 672 626 605 600 588 553 505 497 514 516 541 583 541 495 450 426 431 439 464 500 488 461 427 401 379 361 345 335 324 318 304 336 372 337 304 310 386 301 298 286 277 212 184 271 109 56 129 261 328 335 279 281 200 145 46 24 19 0 0 0 194 152 71 0 0 0 0 0 0 0 0 0 0 0 0 0 0 0 0 0 0 0 128 23 0 0 157 499 450 195 600 601 301 241 346 557 273 333 195 69 107 0 70 160 216 228 123 0 0 55 55 207 256 208 130 32 30 11 13 12 77 138 199 166 180 221 139 114 149 156 172 208 225 284 311 314 289 280
0 0 0 0 0 0 0 0 0 0 0 0 0 0 0 0 0 0 0 0 0 0 0 0 0 0 0 0 0 0 0 0 0 0 0 0 0 0 0 0 0 0 0 0 0 0 0 0 0 0 0 0 0 0 0 0 0 0 0 0 0 0 0 0 0 0 0 0 0 161 349 736 858 842 1185 1552 1984 2151 2416 2060 2052 2109 2181 2088 1892 1854 1910 1656 1610 1657 1595 1492 1491 1508 1625 1603 1538 1403 1142 1041 1116 1363 1253 1156 1080 969 927 910 812 761 793 820 818 847 907 946 1038 1182 1377 1278 1145 1128 1044 1075 921 999 1020 923 847 785 744 589 501 571 657 1109 1160 979 1208 1141 1149 1127 1147 1165 1169 1254 1209 1212 1208 1219 1250 1258 1128 1060 1065 1111 1195 1178 1124 1097 1175 1261 1371 1351 1377 1153 1181 1156 962 679 694 828 703 677 637 748 638 605 798 851 814 817 837 777 1275 1411 1302 1102 1063 1037 995 1082 936 917 756 915 902 891 909 820 751 715 867 666 626 594 609 771 768 721 656 660 666 674 674 674 668 642 622 612 594 568 581 587 641 579 540 468 446 440 437 432 421 414 408 382 392 451 424 366 380 428 464 478 484 522 541 570 581 595 601 631 716 752 768 754 679 701 621 608 604 598 631 595 601 565 546 521 483 469 477 483 502 520 507 495 452 409 401 424 475 510 478 449 411 383 362 344 319 308 302 297 294 309 337 395 430 313 309 313 313 319 242 134 160 320 143 132 127 132 304 326 226 304 184 144 125 92 115 29 12 0 179 130 37 0 0 0 0 0 0 0 0 0 0 0 0 0 0 0 0 0 0 0 0 52 0 149 389 598 619 322 620 887 267 512 803 462 240 236 130 114 0 0 0 219 153 0 0 0 0 0 0 21 213 169 122 64 75 60 27 27 42 66 66 76 110 104 141 234 131 157 184 187 231 277 296 284 279 277
0 0 0 0 0 0 0 0 0 0 0 0 0 0 0 0 0 0 0 0 0 0 0 0 0 0 0 0 0 0 0 0 0 0 0 0 0 0 0 0 0 0 0 0 0 0 0 0 0 0 0 0 0 0 0 0 0 0 0 0 0 0 0 0 0 0 0 0 0 49 249 601 632 726 1370 1201 1382 1504 1654 2020 1897 2293 2493 2499 2451 1850 1989 1716 1649 1631 1643 1504 1506 1509 1543 1632 1593 1284 1153 1055 1093 1253 1507 1342 1230 1086 978 957 1018 856 744 740 713 776 852 958 1017 1138 1339 1337 1231 1158 1115 1122 889 1020 996 935 898 746 702 589 579 434 647 824 1083 1068 1280 1130 1140 1071 1191 1163 1210 1239 1254 1229 1257 1217 1306 1189 1055 1003 995 1007 1044 1058 1065 1005 1009 987 958 965 1084 994 1065 1246 953 1037 1035 846 819 830 776 921 717 793 901 975 919 833 784 1017 1482 1753 1484 1469 1293 1184 1603 1385 1177 1162 1013 1236 942 1135 1156 1006 879 858 787 805 715 622 672 791 892 774 675 712 733 697 682 680 677 678 663 611 581 594 548 572 551 553 508 463 454 451 451 452 453 447 379 358 364 395 361 350 388 449 471 508 561 583 592 601 613 640 676 618 716 767 783 767 723 683 627 594 583 571 580 554 547 523 501 480 454 442 445 451 457 459 453 443 416 384 376 397 435 457 444 424 394 366 342 319 299 308 301 285 289 305 320 397 499 315 334 379 324 257 185 83 231 244 215 158 138 132 242 281 197 165 250 181 155 161 166 80 22 0 163 99 14 0 0 0 0 0 0 0 0 0 0 0 0 0 0 0 0 0 0 0 0 0 0 58 399 1021 750 398 640 792 422 560 863 807 599 674 117 151 0 0 0 139 0 0 0 0 0 0 0 0 113 95 95 84 124 206 171 74 68 113 163 149 114 148 226 188 142 163 181 172 254 284 272 271 267 283
0 0 0 0 0 0 0 0 0 0 0 0 0 0 0 0 0 0 0 0 0 0 0 0 0 0 0 0 0 0 0 0 0 0 0 0 0 0 0 0 0 0 0 0 0 0 0 0 0 0 0 0 0 0 0 0 0 0 0 0 0 0 0 0 0 0 0 0 0 0 105 296 486 863 934 1074 1316 1466 1530 1597 2033 2414 2198 2364 2514 2218 1747 1728 1654 1589 1531 1522 1494 1587 1573 1555 1457 1169 1114 1055 1028 1074 1250 1334 1145 1058 909 884 883 861 705 652 707 743 831 929 999 1107 1366 1365 1259 1201 1180 1129 984 1052 1069 1017 857 738 752 799 917 443 466 539 695 974 1110 1083 1143 945 1187 1148 1162 1259 1222 1229 1267 1247 1197 1124 1028 1073 1132 1095 1041 983 987 1001 964 933 917 897 852 888 976 1070 800 1123 1114 862 963 1016 1033 839 771 968 1004 890 867 858 1508 1503 1899 2074 1921 2062 2070 1611 2406 2079 1567 1215 1714 1602 1166 1438 1438 1289 908 901 860 890 693 642 727 856 909 822 796 842 890 756 703 694 683 689 664 611 586 574 623 572 510 469 460 457 457 441 448 447 454 447 385 334 333 337 335 337 380 446 486 526 577 635 678 613 630 670 711 723 770 797 805 806 780 749 648 589 566 548 530 507 483 460 439 431 420 413 412 412 411 406 398 386 370 353 344 360 389 407 407 394 371 349 325 300 284 282 278 272 277 301 295 317 387 340 472 595 386 314 155 163 225 301 265 152 175 209 270 151 142 181 223 170 166 156 153 131 76 30 155 44 0 0 0 0 0 0 0 0 0 0 0 0 0 0 0 0 0 0 0 0 0 0 0 105 472 816 715 586 765 432 714 606 852 1014 670 633 312 69 0 0 94 48 0 0 0 0 0 0 0 0 0 1 20 23 84 120 105 25 50 87 92 120 150 178 183 147 112 235 148 210 264 262 271 268 285 272
0 0 0 0 0 0 0 0 0 0 0 0 0 0 0 0 0 0 0 0 0 0 0 0 0 0 0 0 0 0 0 0 0 0 0 0 0 0 0 0 0 0 0 0 0 0 0 0 0 0 0 0 0 0 0 0 0 0 0 0 0 0 0 0 0 0 0 0 0 0 0 123 426 546 939 846 1056 1314 1854 1691 2346 2312 2384 2417 2800 2578 1844 1561 1584 1617 1652 1613 1515 1611 1669 1511 1361 1096 1160 1098 987 991 1063 1245 1214 1070 1045 1033 986 763 668 606 637 727 788 856 957 1066 1223 1336 1315 1334 1270 1197 1097 1099 1175 1119 926 842 721 687 629 496 487 401 364 968 722 910 813 901 1155 1200 1155 1207 1352 1306 1299 1221 1181 1047 1022 1216 1320 1187 1136 1062 1168 1210 1174 948 926 913 837 791 996 946 1135 1126 1238 1386 1310 959 942 1054 875 1104 1248 1165 1453 1419 1021 1451 1803 2369 2572 2481 2309 1619 1572 1746 2091 2114 2003 1713 1305 1652 1801 1447 1056 902 862 794 765 754 770 847 908 901 844 859 896 863 736 696 697 715 786 620 588 576 561 598 489 462 456 458 457 428 360 392 419 422 366 318 319 320 322 329 382 456 521 584 597 613 616 641 656 689 733 772 807 807 774 713 623 618 647 603 573 552 528 498 451 400 381 388 388 383 379 374 368 360 351 341 328 322 322 339 364 383 391 383 364 341 318 292 272 263 257 255 259 272 281 289 379 508 595 593 360 272 155 296 284 155 149 197 291 318 251 168 287 155 178 184 167 218 204 154 68 39 122 18 0 0 0 0 0 0 0 0 0 0 0 0 0 0 0 0 0 0 0 0 0 0 0 227 1094 1002 919 866 512 759 748 784 1043 1079 674 765 545 113 169 0 76 8 0 0 0 0 0 0 0 0 0 0 0 0 0 25 51 12 41 94 129 132 144 145 120 149 184 185 199 250 257 241 275 274 285 265
0 0 0 0 0 0 0 0 0 0 0 0 0 0 0 0 0 0 0 0 0 0 0 0 0 0 0 0 0 0 0 0 0 0 0 0 0 0 0 0 0 0 0 0 0 0 0 0 0 0 0 0 0 0 0 0 0 0 0 0 0 0 0 0 0 0 0 0 0 0 0 0 148 394 664 632 809 1206 1442 1487 2166 2711 2737 2521 2471 1500 1671 1730 1628 1781 1679 1556 1543 1573 1573 1599 1549 1389 1099 992 933 930 1010 1320 1521 1171 1018 925 925 815 677 550 619 658 776 869 948 1030 1037 1214 1273 1325 1231 1194 1173 1170 1174 1030 874 804 719 778 798 758 738 678 369 652 1023 883 689 742 1019 1066 1103 1167 1476 1251 1201 1184 1103 1028 1020 1140 1225 1241 1220 1056 1084 1122 1239 1111 905 870 881 899 1100 1311 1115 1312 1391 1517 1542 1464 1260 1073 903 949 1465 1355 1121 1032 1099 1007 1172 1545 1743 1354 1068 1467 1854 1622 1624 1562 2331 1880 1654 1594 1759 1700 1535 1128 860 757 733 888 775 839 819 896 869 896 945 971 798 725 748 733 672 599 591 643 622 613 526 456 442 439 433 448 337 303 317 350 323 306 310 310 310 315 348 416 448 561 709 694 834 746 760 693 715 755 797 795 737 659 604 608 637 597 583 597 585 541 460 378 365 368 365 359 350 342 335 328 318 303 293 298 305 329 361 387 398 387 362 331 306 285 282 267 247 244 275 315 306 307 405 491 472 477 343 166 198 345 272 180 158 204 309 323 275 238 257 255 243 153 170 233 263 185 146 104 154 23 0 0 0 0 0 0 0 0 0 0 0 0 0 0 0 0 0 0 0 0 0 0 86 744 984 1381 1224 561 727 690 811 823 1091 1145 779 769 1080 221 308 0 102 0 0 0 0 0 0 0 0 0 0 0 0 0 0 0 10 3 20 54 111 124 141 114 96 100 138 154 215 232 227 222 257 272 268 240
0 0 0 0 0 0 0 0 0 0 0 0 0 0 0 0 0 0 0 0 0 0 0 0 0 0 0 0 0 0 0 0 0 0 0 0 0 0 0 0 0 0 0 0 0 0 0 0 0 0 0 0 0 0 0 0 0 0 0 0 0 0 0 0 0 0 0 0 0 0 0 0 0 101 386 639 797 1326 1544 1790 1725 2002 2640 2914 1541 1130 1375 1874 1737 1901 1814 1610 1562 1616 1640 1566 1482 1325 1225 1000 916 865 875 1376 1364 1178 1054 917 1005 745 696 542 582 675 694 784 911 959 1130 1193 1383 1309 1278 1217 1163 1131 1051 896 850 784 737 913 930 1047 1022 782 445 499 730 825 665 740 1253 1254 1257 1374 1350 1274 1210 1142 1080 1067 1085 1150 1188 1225 1224 1155 1031 1117 1144 936 874 883 893 1153 1250 1335 1220 1585 1652 1415 1251 1311 1168 1097 1095 1116 1065 1004 879 973 978 1007 1048 1519 1382 1044 1575 2064 2407 2096 2051 1942 2837 1388 1257 1214 1601 2314 2002 1556 1079 895 828 823 854 880 860 874 876 1010 1012 839 769 769 795 835 823 663 600 581 598 554 488 456 452 457 423 408 344 301 302 296 292 295 299 300 301 307 325 379 410 485 605 716 850 895 867 722 709 747 779 775 700 621 595 716 650 576 558 610 625 550 456 388 356 353 356 352 331 324 325 317 302 281 284 299 304 334 369 399 410 391 358 317 296 303 296 263 236 241 290 337 303 305 412 411 345 322 328 231 205 389 277 296 193 188 297 294 230 189 154 168 162 182 203 233 225 210 131 101 144 49 0 0 0 0 0 0 0 0 0 0 0 0 0 0 0 0 0 0 0 0 0 323 491 1060 1339 1065 1150 884 982 816 889 1065 1038 1180 966 969 962 474 205 11 129 0 0 0 0 0 0 0 0 0 0 0 0 0 0 0 2 2 12 50 68 109 125 95 64 130 155 199 210 210 209 224 235 253 236 226
0 0 0 0 0 0 0 0 0 0 0 0 0 0 0 0 0 0 0 0 0 0 0 0 0 0 0 0 0 0 0 0 0 0 0 0 0 0 0 0 0 0 0 0 0 0 0 0 0 0 0 0 0 0 0 0 0 0 0 0 0 0 0 0 0 0 0 0 0 0 0 0 0 0 285 489 798 1243 1321 1369 1289 1450 1739 1556 1300 1065 1214 1603 1766 1810 1833 1651 1642 1626 1687 1650 1587 1548 1439 1267 1382 1052 862 1257 1346 1142 960 899 906 681 679 538 582 606 747 805 935 993 1053 1138 1260 1309 1310 1296 1152 1026 987 986 986 888 942 1110 1281 1252 1099 789 614 358 653 825 688 676 1043 1199 1372 1466 1720 1528 1301 1151 1058 1076 1136 1151 1183 1169 1141 1078 1105 1170 1079 962 973 1000 949 939 1093 1208 1363 1742 1897 1668 1403 858 1084 1554 1507 1395 1205 989 865 1412 1242 1299 1821 2019 2034 1920 1770 1711 1890 1629 1854 1808 2473 1995 1546 1147 1023 1154 1326 952 889 1076 1056 879 905 967 932 890 981 1207 1030 866 840 811 846 877 928 784 592 587 523 488 455 447 448 450 428 354 318 303 301 294 291 290 290 302 341 305 341 396 434 479 513 596 704 904 729 703 678 702 746 770 694 609 592 586 560 558 516 500 519 482 431 412 365 346 374 374 351 342 340 328 304 279 271 264 310 351 378 410 440 424 371 327 318 312 271 240 222 239 262 270 263 266 309 305 329 325 314 247 504 493 314 306 280 247 243 239 159 157 128 146 152 170 199 244 227 153 152 143 142 77 0 0 0 0 0 0 0 0 0 0 0 0 0 0 0 0 0 0 0 0 0 840 1773 1472 1305 1294 1399 1053 989 993 980 1230 1306 1146 1063 1100 635 338 296 190 180 0 0 0 0 0 0 0 0 0 0 0 0 0 0 0 0 0 10 23 54 95 115 39 120 162 183 197 177 196 201 232 239 228 222 217
0 0 0 0 0 0 0 0 0 0 0 0 0 0 0 0 0 0 0 0 0 0 0 0 0 0 0 0 0 0 0 0 0 0 0 0 0 0 0 0 0 0 0 0 0 0 0 0 0 0 0 0 0 0 0 0 0 0 0 0 0 0 0 0 0 0 0 0 0 0 0 0 0 0 62 286 594 764 817 1025 1202 1268 1629 1509 1117 937 1079 1307 1425 1287 1608 1728 1671 1620 1696 1706 1670 1714 1635 1344 1334 1326 1048 1049 1512 1071 1028 955 1215 720 601 472 526 656 822 775 847 1097 1065 1044 1089 1293 1407 1246 1133 1082 1093 1124 1044 1058 1097 1139 1114 1018 814 574 720 519 539 797 859 574 952 949 1204 1305 1458 1477 1304 1196 1090 1081 1068 1114 1149 1152 1050 1101 1166 1483 1299 1120 1330 1228 1129 977 978 1192 1544 1983 2121 1697 782 928 1440 2192 1652 1532 1242 1013 951 1387 1339 1309 1716 1774 1522 1563 1536 1497 1480 1524 1582 1909 2290 2183 1877 1404 1141 1116 1432 2821 1773 865 1202 933 932 1180 1003 919 1131 1142 963 884 896 865 879 881 903 733 601 572 559 460 421 396 380 388 363 332 313 306 300 299 292 295 317 320 304 320 377 379 423 491 572 635 769 769 646 586 571 603 636 767 677 573 602 552 533 546 558 479 464 475 428 478 413 338 425 414 375 366 358 345 310 290 290 265 342 376 372 390 473 464 410 433 413 331 270 251 216 234 220 193 219 232 287 302 316 305 290 319 631 336 313 312 304 265 226 159 153 153 121 126 147 162 182 271 285 181 156 127 86 43 11 0 0 0 0 0 0 0 0 0 0 0 0 0 0 0 0 0 0 0 0 541 1377 1526 1627 1279 1217 1082 976 1104 1275 1239 1244 1207 1150 1215 897 478 660 205 164 0 0 0 0 0 0 0 0 0 0 0 0 0 0 0 0 0 0 9 49 94 68 60 116 130 166 167 167 172 205 237 238 229 197 189
0 0 0 0 0 0 0 0 0 0 0 0 0 0 0 0 0 0 0 0 0 0 0 0 0 0 0 0 0 0 0 0 0 0 0 0 0 0 0 0 0 0 0 0 0 0 0 0 0 0 0 0 0 0 0 0 0 0 0 0 0 0 0 0 0 0 0 0 0 0 0 0 0 0 0 23 242 460 457 904 809 1235 1256 1448 1179 754 1049 1234 1164 1112 1580 1804 1742 1655 1683 1700 1548 1642 1894 2006 1289 1157 906 851 986 933 780 707 1177 582 492 470 557 584 597 744 779 855 879 958 1146 1191 1351 1324 1180 1158 1137 1202 1091 1151 1162 1200 1087 1113 762 460 586 555 318 609 465 564 690 582 852 1314 1360 1512 1319 1215 1173 1137 1087 1089 1148 1157 1146 1190 1278 1397 1455 1283 1311 1176 1082 1090 978 1092 1220 1504 1472 1122 966 1066 1372 1549 1634 1482 1298 1021 1024 1295 1398 1153 1321 1607 1586 1405 1470 1575 1518 1528 1623 1875 1868 1898 1773 1575 1484 1272 1015 1425 2235 1150 871 1458 1172 1332 1420 1195 1184 1138 1032 926 944 949 934 823 721 620 610 580 488 472 417 393 391 358 340 317 310 305 304 298 295 295 297 299 287 294 298 303 331 544 610 633 637 647 589 546 477 467 523 649 634 513 528 554 504 592 533 567 492 503 448 484 484 351 408 381 344 348 361 375 321 340 328 271 335 320 328 308 307 327 317 402 416 362 298 268 207 215 215 185 181 192 244 284 231 185 191 234 309 298 350 380 323 321 283 193 129 137 110 129 148 184 133 121 209 191 157 127 0 14 2 0 0 0 0 0 0 0 0 0 0 0 0 0 0 0 0 0 0 0 0 197 1554 1607 1342 1408 1104 1123 1072 1252 1187 1312 1103 1098 1054 997 669 363 560 185 115 0 0 0 0 0 0 0 0 0 0 0 0 0 0 0 0 0 0 0 44 50 40 104 114 111 136 152 151 161 212 235 223 226 202 179
0 0 0 0 0 0 0 0 0 0 0 0 0 0 0 0 0 0 0 0 0 0 0 0 0 0 0 0 0 0 0 0 0 0 0 0 0 0 0 0 0 0 0 0 0 0 0 0 0 0 0 0 0 0 0 0 0 0 0 0 0 0 0 0 0 0 0 0 0 0 0 0 0 0 0 0 0 171 448 531 685 894 840 1276 1142 770 1233 1122 1128 1324 1624 1665 1455 1483 1611 1661 1431 1393 1414 1603 1413 1031 794 851 571 605 597 606 919 637 413 441 641 539 564 610 609 804 821 901 1038 1126 1305 1290 1205 1244 1194 1184 1221 1238 1258 1111 1123 975 746 483 412 411 352 442 603 537 673 742 568 917 1106 1422 1462 1275 1197 1151 1115 1102 1135 1167 1175 1182 1246 1375 1378 1325 1227 1150 1180 969 991 1207 1009 1001 1104 998 943 1000 1220 1531 1615 1349 1438 1031 1113 1169 1256 1208 1070 1180 1510 1447 1460 1598 1604 1490 1610 1687 1499 1396 1502 1675 1488 1524 1044 1169 1277 1108 672 860 1266 1487 1480 1335 1292 1158 1092 1027 1048 1021 1013 791 656 617 609 592 475 438 421 394 355 316 307 303 300 297 294 301 292 303 288 287 277 286 300 338 337 509 655 717 773 592 570 533 368 378 491 604 652 554 335 343 443 475 773 645 528 495 485 441 404 361 334 292 305 319 342 356 282 289 266 238 228 217 240 247 193 214 328 332 381 425 323 278 227 244 192 240 213 188 248 263 171 138 110 145 227 253 361 446 333 335 303 161 124 112 150 145 151 159 91 30 182 106 153 36 21 15 7 0 0 0 0 0 0 0 0 0 0 0 0 0 0 0 0 0 0 0 0 46 882 1478 978 971 1281 1118 1297 1401 1433 1231 1152 1308 1154 929 723 661 512 98 86 0 0 0 0 0 0 0 0 0 0 0 0 0 0 0 0 0 0 0 11 28 73 71 80 118 109 144 142 168 185 206 213 211 201 171
0 0 0 0 0 0 0 0 0 0 0 0 0 0 0 0 0 0 0 0 0 0 0 0 0 0 0 0 0 0 0 0 0 0 0 0 0 0 0 0 0 0 0 0 0 0 0 0 0 0 0 0 0 0 0 0 0 0 0 0 0 0 0 0 0 0 0 0 0 0 0 0 0 0 0 0 0 0 83 213 507 523 705 805 1104 545 997 1163 1148 1314 1246 1259 1175 1258 1426 1564 1128 1350 1126 1414 1613 1377 1035 562 535 451 492 534 525 549 439 378 522 542 508 623 589 679 807 992 1079 1172 1387 1351 1297 1355 1252 1247 1355 1365 1331 1416 1220 1044 827 431 347 343 539 968 748 857 555 524 836 619 865 1486 1491 1371 1289 1237 1158 1137 1120 1127 1157 1174 1268 1320 1372 1373 1292 1201 1389 1094 787 825 844 1083 1296 1233 1047 951 1122 1350 1467 1353 1293 1038 1057 1076 1075 1116 1244 1417 1453 1493 1373 1524 1594 1534 1553 1532 1520 1489 1414 1509 1360 1292 1009 1140 1374 1197 824 643 743 1815 1631 1486 1447 1423 1330 1197 1158 1118 918 816 899 681 606 664 485 430 432 430 398 314 341 309 296 296 293 290 291 304 291 278 275 282 313 531 330 437 629 641 600 575 537 441 458 322 448 591 613 404 279 270 303 414 529 553 570 586 564 522 465 475 461 334 290 294 310 257 243 281 274 260 303 361 249 208 244 317 227 247 328 421 304 303 301 280 202 294 233 207 230 249 159 162 67 81 121 207 344 438 324 322 249 172 96 98 103 68 80 111 41 27 55 144 156 97 33 20 6 2 0 0 0 0 0 0 0 0 0 0 0 0 0 0 0 0 0 0 0 0 0 0 346 880 974 1192 1386 1292 1251 1096 1343 1206 1077 943 891 721 706 135 116 0 0 0 0 0 0 0 0 0 0 0 0 0 0 0 0 0 0 0 0 15 40 55 97 94 111 131 123 172 166 189 204 209 186 168
0 0 0 0 0 0 0 0 0 0 0 0 0 0 0 0 0 0 0 0 0 0 0 0 0 0 0 0 0 0 0 0 0 0 0 0 0 0 0 0 0 0 0 0 0 0 0 0 0 0 0 0 0 0 0 0 0 0 0 0 0 0 0 0 0 0 0 0 0 0 0 0 0 0 0 0 0 0 0 0 112 267 500 688 794 767 1281 1024 1072 1309 930 973 1073 1097 1261 1310 1196 1043 959 1183 1107 1439 972 426 465 389 377 425 453 441 375 368 434 496 468 510 578 771 854 1050 1126 1287 1411 1396 1387 1332 1335 1313 1367 1430 1263 1396 1458 1374 855 432 350 354 563 718 989 950 783 596 588 734 951 1321 1470 1468 1445 1278 1229 1189 1166 1145 1143 1197 1272 1300 1417 1420 1347 1317 1329 1142 870 790 1019 1374 1481 1290 1151 994 1153 1234 1217 1161 1083 1040 1028 1027 1033 1114 1406 1433 1545 1436 1450 1485 1577 1597 1576 1575 1566 1439 1474 1296 1112 1136 1120 1035 1208 931 1030 993 682 1025 1736 1648 1370 1191 1200 1149 1169 1083 1097 1158 1035 817 590 500 436 431 391 381 344 303 303 302 302 303 300 294 290 288 284 277 274 277 275 222 221 366 579 612 588 653 756 519 512 315 425 511 449 318 283 272 265 315 429 527 660 601 630 601 582 603 499 386 334 273 258 278 330 325 293 301 315 366 303 276 225 213 325 207 261 385 330 308 263 204 209 240 276 234 248 325 278 284 186 326 321 374 457 438 329 211 191 115 64 76 95 80 63 57 70 57 3 140 132 57 13 6 5 4 0 0 0 0 0 0 0 0 0 0 0 0 0 0 0 0 0 0 0 0 0 0 94 517 820 1269 1035 1203 1177 1224 1312 1047 976 865 834 911 1011 522 135 0 0 0 0 0 0 0 0 0 0 0 0 0 0 0 0 0 0 0 0 0 7 58 69 87 101 119 120 144 160 160 183 195 176 157
0 0 0 0 0 0 0 0 0 0 0 0 0 0 0 0 0 0 0 0 0 0 0 0 0 0 0 0 0 0 0 0 0 0 0 0 0 0 0 0 0 0 0 0 0 0 0 0 0 0 0 0 0 0 0 0 0 0 0 0 0 0 0 0 0 0 0 0 0 0 0 0 0 0 0 0 0 0 0 0 0 40 174 418 361 831 876 924 913 1042 742 1057 755 848 1019 1301 1045 664 712 808 627 601 559 427 385 341 315 330 355 408 276 311 468 447 453 443 467 571 676 1076 1166 1291 1316 1301 1432 1397 1388 1380 1469 1490 1330 1161 1215 1148 731 406 342 353 540 727 1045 1008 946 803 843 674 849 1132 1350 1426 1312 1416 1292 1259 1234 1207 1158 1181 1217 1347 1456 1485 1557 1582 1351 902 998 1299 1729 1634 1539 1226 1032 1083 1242 1234 1120 1058 1110 1045 1031 1060 1098 1160 1259 1305 1374 1372 1488 1362 1244 1305 1396 1419 1411 1260 1396 1490 1373 1401 1201 1094 1090 1206 1124 1114 888 635 762 1238 937 822 794 893 1003 836 831 1204 865 787 627 469 406 464 349 327 310 305 345 324 306 305 301 295 290 288 282 275 274 272 233 182 294 609 627 685 593 716 838 670 459 311 410 437 332 318 343 343 279 286 372 552 624 572 607 615 582 500 413 361 332 291 247 273 320 324 305 371 410 337 265 310 447 292 231 234 220 267 317 337 300 202 244 272 280 292 312 323 390 297 347 409 377 347 370 403 349 228 123 73 125 188 165 147 210 142 48 24 29 61 47 13 8 6 5 3 0 0 0 0 0 0 0 0 0 0 0 0 0 0 0 0 0 0 0 0 0 0 314 1033 1377 1622 1588 1212 1354 1292 1093 916 952 869 1057 1126 994 453 220 0 0 0 0 0 0 0 0 0 0 0 0 0 0 0 0 0 0 0 0 0 3 47 66 88 83 91 140 166 177 170 182 185 153 148
0 0 0 0 0 0 0 0 0 0 0 0 0 0 0 0 0 0 0 0 0 0 0 0 0 0 0 0 0 0 0 0 0 0 0 0 0 0 0 0 0 0 0 0 0 0 0 0 0 0 0 0 0 0 0 0 0 0 0 0 0 0 0 0 0 0 0 0 0 0 0 0 0 0 0 0 0 0 0 0 0 0 0 107 424 538 568 556 727 903 667 698 732 515 646 602 641 725 485 505 417 408 401 355 291 323 307 291 306 357 254 265 307 414 496 412 467 543 716 954 1157 1100 1147 1240 1225 1310 1426 1553 1486 1275 1139 1090 1083 1080 984 401 385 315 616 732 852 971 996 906 887 635 552 588 841 1039 1113 1380 1340 1442 1425 1285 1312 1179 1199 1346 1407 1517 1558 1557 1602 1548 1647 1675 1888 1782 1464 1095 961 1077 1149 1151 1113 1106 1206 1058 1042 1057 1086 1112 1150 1184 1226 1268 1350 1359 1310 1357 1288 1241 1234 1214 1272 1370 1368 1357 1227 1215 1324 1198 1179 1161 1179 822 608 651 660 620 590 668 777 688 558 600 790 621 509 433 379 343 316 305 303 359 405 311 293 290 291 290 287 286 281 273 273 266 220 263 356 492 579 566 660 955 730 561 439 321 404 493 437 395 431 525 347 275 385 515 544 520 572 635 508 396 325 319 302 251 253 288 278 288 300 375 453 376 276 340 801 672 275 292 322 230 220 189 197 204 238 277 258 306 365 345 376 343 391 419 374 318 309 352 259 93 89 127 154 234 310 256 273 175 238 183 118 119 129 19 7 5 3 6 0 0 0 0 0 0 0 0 0 0 0 0 0 0 0 0 0 0 0 0 0 0 652 1329 1458 1413 1270 1514 1050 1259 1000 831 1054 988 864 1011 1193 718 347 0 0 0 0 0 0 0 0 0 0 0 0 0 0 0 0 0 0 0 0 0 0 40 69 79 64 109 167 182 192 177 188 166 127 142
0 0 0 0 0 0 0 0 0 0 0 0 0 0 0 0 0 0 0 0 0 0 0 0 0 0 0 0 0 0 0 0 0 0 0 0 0 0 0 0 0 0 0 0 0 0 0 0 0 0 0 0 0 0 0 0 0 0 0 0 0 0 0 0 0 0 0 0 0 0 0 0 0 0 0 0 0 0 0 0 0 0 0 0 112 238 376 304 511 623 413 435 400 429 437 350 345 291 297 297 300 325 298 252 264 293 312 283 290 273 217 319 405 451 412 348 433 499 637 761 1061 958 1046 971 1111 1326 1357 1526 1368 1231 1112 931 974 866 1060 519 443 340 557 919 925 958 1016 903 888 858 748 583 663 714 796 996 1324 1467 1567 1461 1382 1258 1183 1318 1248 1371 1496 1658 1716 1615 2110 2004 2009 1252 952 942 1278 1401 1267 1135 1157 1172 1253 1135 1072 1065 1081 1103 1132 1176 1227 1204 1229 1191 1206 1248 1236 1252 1226 1221 1217 1239 1255 1234 1212 1208 1237 1221 1134 1061 1057 958 753 725 704 810 832 632 741 749 587 480 475 543 448 402 370 342 324 354 303 302 301 293 291 290 288 287 286 284 279 272 270 269 268 293 344 391 432 484 570 757 698 508 428 318 408 578 488 426 423 482 348 275 399 464 484 488 482 509 414 371 315 300 281 270 239 292 309 348 281 341 421 317 299 315 458 422 376 306 297 426 346 192 262 283 298 282 343 333 383 419 412 413 409 377 294 288 290 254 131 124 251 251 261 308 324 352 349 239 352 453 454 395 274 101 19 9 3 2 0 0 0 0 0 0 0 0 0 0 0 0 0 0 0 0 0 0 0 0 0 291 1043 1528 1315 1149 1501 1138 1079 1131 900 957 994 1002 658 884 1356 1030 779 268 0 0 0 0 0 0 0 0 0 0 0 0 0 0 0 0 0 0 0 0 0 38 64 62 82 110 182 197 198 178 173 142 92 109
0 0 0 0 0 0 0 0 0 0 0 0 0 0 0 0 0 0 0 0 0 0 0 0 0 0 0 0 0 0 0 0 0 0 0 0 0 0 0 0 0 0 0 0 0 0 0 0 0 0 0 0 0 0 0 0 0 0 0 0 0 0 0 0 0 0 0 0 0 0 0 0 0 0 0 0 0 0 0 0 0 0 0 0 12 82 165 191 246 436 234 380 233 156 370 269 415 248 201 201 276 298 243 301 288 300 232 250 233 236 283 314 412 382 325 348 399 461 533 671 821 871 891 837 930 1169 1364 1520 1392 1354 1152 963 864 712 690 503 466 355 526 910 1030 895 1123 1055 927 848 793 608 598 633 679 851 1152 1322 1403 1432 1536 1374 1182 1284 1238 1338 1503 1499 1629 1622 1610 1688 1323 940 993 1115 1338 1282 1201 1210 1215 1075 1172 1154 1094 1084 1090 1120 1153 1184 1234 1214 1238 1024 779 706 1146 1174 1204 1202 1210 1223 1272 1225 1221 1209 1205 1234 1136 1084 980 1087 977 820 856 992 1063 821 607 824 742 662 789 658 484 414 383 360 340 336 305 299 298 296 293 292 288 287 285 282 279 274 271 269 273 281 312 338 355 377 442 585 449 388 342 300 322 425 403 375 404 381 267 269 367 463 463 468 462 456 373 359 336 305 321 279 279 257 257 296 267 286 332 341 380 333 447 554 392 384 385 458 327 243 187 317 308 301 395 458 412 477 460 479 448 389 324 227 193 140 115 255 358 357 436 449 525 479 503 288 401 656 500 267 260 109 16 11 3 3 0 0 0 0 0 0 0 0 0 0 0 0 0 0 0 0 0 0 0 0 0 822 1664 1468 1195 1346 1400 1133 1194 966 840 881 764 779 809 1156 1653 1083 635 463 0 0 0 0 0 0 0 0 0 0 0 0 0 0 0 0 0 0 0 0 0 31 37 60 88 122 195 202 201 184 152 110 91 103
0 0 0 0 0 0 0 0 0 0 0 0 0 0 0 0 0 0 0 0 0 0 0 0 0 0 0 0 0 0 0 0 0 0 0 0 0 0 0 0 0 0 0 0 0 0 0 0 0 0 0 0 0 0 0 0 0 0 0 0 0 0 0 0 0 0 0 0 0 0 0 0 0 0 0 0 0 0 0 0 0 0 0 0 0 18 53 133 141 157 174 138 143 181 239 198 203 147 154 103 173 222 205 191 178 174 199 192 187 249 216 246 329 335 284 313 353 459 508 546 686 676 727 809 1008 1167 1451 1389 1199 1158 1087 862 736 756 509 539 439 345 482 704 937 906 979 1132 1382 929 856 720 622 629 658 755 922 1015 1146 1235 1369 1379 1244 1268 1294 1291 1365 1439 1478 1424 1383 964 975 997 1226 989 1080 1162 1204 1189 1134 1094 1136 1178 1113 1100 1109 1166 1252 1215 1244 1279 1315 1251 1046 907 1149 1199 1206 1208 1209 1229 1272 1229 1214 1228 1212 1145 1103 1076 1017 982 1036 882 903 1011 983 850 696 750 887 961 996 645 522 456 429 401 363 347 330 311 301 297 295 294 291 287 285 283 281 278 274 271 268 271 277 295 311 329 374 523 448 315 299 297 310 316 314 293 289 359 249 254 328 391 398 464 481 490 376 389 412 402 323 303 320 302 268 227 253 268 336 366 417 367 398 623 575 542 495 505 316 288 273 212 309 272 304 468 434 454 403 488 476 434 313 230 90 152 197 383 477 498 558 568 637 580 776 576 327 618 308 225 297 97 16 7 2 0 0 0 0 0 0 0 0 0 0 0 0 0 0 0 0 0 0 0 0 0 461 1520 2012 1266 1595 1563 1597 1067 1048 975 905 816 855 867 814 1154 1474 1143 774 365 106 0 0 0 0 0 0 0 0 0 0 0 0 0 0 0 0 0 0 6 10 44 42 63 73 110 155 182 163 181 166 112 86 114
0 0 0 0 0 0 0 0 0 0 0 0 0 0 0 0 0 0 0 0 0 0 0 0 0 0 0 0 0 0 0 0 0 0 0 0 0 0 0 0 0 0 0 0 0 0 0 0 0 0 0 0 0 0 0 0 0 0 0 0 0 0 0 0 0 0 0 0 0 0 0 0 0 0 0 0 0 0 0 0 0 0 0 0 0 0 0 18 53 37 80 70 36 28 46 35 12 16 15 31 86 108 99 126 122 148 135 164 227 222 153 202 224 267 257 251 367 492 605 537 578 575 861 949 1032 1111 1471 1442 1126 1042 974 854 636 594 530 539 433 318 377 579 857 725 863 968 979 1011 918 858 759 743 737 770 816 893 968 1048 1217 1250 1352 1480 1542 1246 1355 1486 1323 1137 930 834 924 1412 1427 1071 1104 1158 1150 1131 1197 1160 1144 1210 1150 1139 1179 1212 1269 1261 1270 1286 1269 1297 1219 1210 1216 1210 1207 1208 1211 1224 1245 1201 1163 1193 1197 1177 1099 1100 976 1029 858 944 961 1062 969 874 832 868 1002 1132 730 628 618 510 460 425 392 365 346 318 304 298 296 295 292 289 287 284 284 283 291 303 282 271 267 269 280 292 327 393 368 281 281 326 376 301 271 260 279 294 280 297 252 240 259 390 358 377 323 444 513 411 352 420 341 309 301 256 239 272 317 406 458 533 420 561 675 601 600 428 313 308 198 281 308 258 246 319 320 305 276 294 286 241 179 304 116 240 237 374 566 598 674 606 603 733 813 852 242 505 221 155 250 57 36 16 4 0 0 0 0 0 0 0 0 0 0 0 0 0 0 0 1 0 0 0 0 381 1310 1854 1662 1395 1172 1246 1476 1072 1017 1080 988 1011 995 820 1024 1066 1344 1333 1000 508 195 0 0 0 0 0 0 0 0 0 0 0 0 0 0 0 0 0 0 13 9 44 57 63 69 92 119 137 161 187 167 91 103 115
0 0 0 0 0 0 0 0 0 0 0 0 0 0 0 0 0 0 0 0 0 0 0 0 0 0 0 0 0 0 0 0 0 0 0 0 0 0 0 0 0 0 0 0 0 0 0 0 0 0 0 0 0 0 0 0 0 0 0 0 0 0 0 0 0 0 0 0 0 0 0 0 0 0 0 0 0 0 0 0 0 0 0 0 0 0 0 0 0 0 28 33 24 17 28 5 1 12 21 15 10 20 44 56 74 85 115 165 203 201 139 166 173 244 184 229 297 389 760 993 1312 1045 1006 994 1145 1281 1584 1359 1244 1019 770 816 645 521 412 329 372 389 392 433 540 714 741 998 990 1206 1012 907 989 910 827 874 865 883 923 976 1045 1134 1301 1416 1386 1275 1481 1508 1242 1061 847 835 1115 1352 1487 1131 1152 1175 1142 1145 1226 1217 1173 1192 1209 1162 1223 1235 1223 1231 1230 1223 1261 1218 1214 1206 1206 1208 1207 1209 1212 1216 1222 1232 1158 1212 1172 1191 1170 1037 969 984 971 979 1034 992 954 957 1025 1195 1716 956 750 784 705 518 466 429 396 362 337 314 302 298 295 294 291 289 287 289 300 303 316 315 298 279 271 268 267 267 276 289 286 265 266 291 292 315 296 333 354 355 304 284 261 277 267 240 228 276 269 367 496 460 388 356 347 411 302 253 258 268 351 462 566 629 501 534 602 620 579 417 418 294 289 216 233 226 184 201 226 215 161 158 127 120 232 133 183 181 277 365 397 433 498 559 610 653 463 180 103 36 0 19 51 115 142 76 8 0 0 0 0 0 0 0 0 0 0 0 0 0 0 350 514 0 0 0 0 1519 1643 1746 1440 1236 1060 1002 1042 1032 1077 1134 1090 1174 1161 1066 908 1080 1316 1360 790 882 503 195 0 0 0 0 0 0 0 0 0 0 0 0 0 0 2 0 0 25 12 41 55 73 88 100 135 150 167 177 130 84 100 105
0 0 0 0 0 0 0 0 0 0 0 0 0 0 0 0 0 0 0 0 0 0 0 0 0 0 0 0 0 0 0 0 0 0 0 0 0 0 0 0 0 0 0 0 0 0 0 0 0 0 0 0 0 0 0 0 0 0 0 0 0 0 0 0 0 0 0 0 0 0 0 0 0 0 0 0 0 0 0 0 0 0 0 0 0 0 0 0 0 0 0 0 0 1 0 0 0 0 24 24 20 15 36 35 44 75 91 108 151 151 104 119 141 165 146 212 332 287 635 727 1095 1746 1288 805 887 1096 1434 1911 1161 884 659 605 559 431 289 307 386 454 288 451 515 583 810 861 1100 1337 1091 1110 1231 1041 1001 1008 1018 1041 946 970 1047 1127 1147 1332 1385 1285 1438 1521 1521 1083 841 1209 1253 1432 1423 1396 1154 1264 1170 1166 1186 1202 1202 1182 1225 1179 1203 1248 1243 1214 1186 1227 1229 1230 1206 1193 1213 1209 1207 1210 1214 1216 1216 1211 1180 1153 1113 1046 1013 1020 971 970 1042 1078 1083 1025 1058 1004 1271 1799 2016 938 1100 741 572 530 476 437 396 360 329 310 304 299 296 306 292 289 288 308 322 324 320 315 305 296 284 279 294 295 281 270 269 266 274 276 284 423 504 410 365 340 339 345 284 242 326 267 243 229 237 359 485 489 431 410 410 368 278 285 321 246 313 385 488 562 490 589 572 683 561 399 370 312 292 304 200 181 171 169 162 119 113 126 114 274 295 173 115 212 251 267 342 523 656 777 592 327 70 0 0 61 117 165 318 356 239 112 16 0 0 0 0 0 0 0 0 0 0 0 0 0 0 554 551 0 0 0 0 1336 1284 1668 1253 1145 1003 972 1104 1045 987 1030 1044 1130 1106 1144 1020 1207 1588 1295 930 758 880 485 0 0 0 0 0 0 0 0 0 0 0 0 0 0 45 0 0 28 15 33 48 54 75 102 144 161 154 154 116 77 85 98
0 0 0 0 0 0 0 0 0 0 0 0 0 0 0 0 0 0 0 0 0 0 0 0 0 0 0 0 0 0 0 0 0 0 0 0 0 0 0 0 0 0 0 0 0 0 0 0 0 0 0 0 0 0 0 0 0 0 0 0 0 0 0 0 0 0 0 0 0 0 0 0 0 0 0 0 0 0 0 0 0 0 0 0 0 0 0 0 0 0 0 0 0 0 0 0 0 0 0 14 0 9 22 20 38 66 70 78 89 102 77 102 117 130 143 219 282 237 269 294 556 1040 662 718 949 627 524 817 921 758 751 572 430 268 263 368 351 317 536 556 604 733 850 1106 1176 1277 1149 1109 1027 1033 1185 1107 1222 1361 1195 1159 1253 1441 1303 1301 1234 1298 1502 1718 1462 1121 1210 1598 1363 1264 1341 1261 1189 1218 1209 1206 1220 1221 1184 1240 1235 1226 1221 1214 1205 1231 1193 1234 1198 1243 1176 1174 1201 1190 1207 1214 1219 1221 1216 1200 1196 1203 1122 1063 1065 1031 1009 1034 1048 1097 1065 1040 1132 1028 1091 1536 1335 1225 798 679 602 545 482 436 396 357 331 333 307 301 298 296 293 290 294 327 332 334 325 326 323 320 313 311 333 336 313 301 293 338 361 335 333 417 463 421 379 346 382 438 283 275 310 294 256 232 228 273 457 501 503 451 452 290 305 252 273 309 253 366 408 513 463 485 451 525 430 322 312 275 264 250 269 246 252 262 273 150 150 148 169 244 387 167 219 347 317 430 496 868 530 375 183 26 0 0 106 318 479 340 543 493 325 171 14 0 0 0 0 0 0 0 0 0 0 0 0 0 0 428 478 113 0 0 0 1007 1100 1043 1215 1098 1032 1040 1095 999 934 920 1000 983 1086 1211 1220 1176 1367 1329 1062 854 995 622 0 0 0 0 0 0 0 0 0 0 0 0 0 20 51 0 0 18 21 30 62 61 74 89 106 140 125 145 105 91 96 120
0 0 0 0 0 0 0 0 0 0 0 0 0 0 0 0 0 0 0 0 0 0 0 0 0 0 0 0 0 0 0 0 0 0 0 0 0 0 0 0 0 0 0 0 0 0 0 0 0 0 0 0 0 0 0 0 0 0 0 0 0 0 0 0 0 0 0 0 0 0 0 0 0 0 0 0 0 0 0 0 0 0 0 0 0 0 0 0 0 0 0 0 0 0 0 0 0 0 0 39 0 13 46 15 27 42 52 60 68 73 98 107 130 129 114 169 199 260 171 215 171 283 350 507 626 456 471 516 727 705 786 720 406 296 257 341 269 348 591 733 777 1109 1317 1278 1159 1181 1215 1085 947 1130 1274 1236 1182 1138 1097 1164 1219 1306 1406 1627 1649 1438 1477 1794 1620 1510 1391 1373 1288 1276 1291 1275 1206 1250 1231 1312 1329 1228 1184 1204 1241 1290 1254 1215 1190 1212 1202 1218 1208 1196 1180 1271 1278 1184 1211 1221 1244 1242 1222 1196 1157 1185 1196 1088 1081 1061 1124 1047 1067 1066 1065 1047 1235 1196 1117 1267 995 1179 1128 852 581 510 460 419 386 368 366 348 319 306 303 298 309 300 311 338 350 360 336 336 343 344 345 345 371 374 346 338 327 495 484 425 421 417 389 409 384 336 315 324 315 375 340 344 295 355 256 240 346 449 417 399 335 253 245 265 263 238 240 277 415 430 409 393 391 384 357 369 437 337 252 273 475 531 382 355 294 240 202 266 243 246 275 228 305 549 576 714 1187 563 172 89 32 21 197 357 443 647 634 340 409 474 379 276 28 0 0 0 0 0 0 0 0 0 0 0 0 0 0 129 257 64 0 0 0 768 395 1031 1365 1045 1000 1009 1044 993 908 904 921 891 892 944 1064 993 1296 1276 1309 1023 1076 941 57 0 0 0 0 0 0 0 0 0 0 0 0 45 61 14 0 16 31 30 67 68 70 85 97 119 150 151 94 96 110 110
0 0 0 0 0 0 0 0 0 0 0 0 0 0 0 0 0 0 0 0 0 0 0 0 0 0 0 0 0 0 0 0 0 0 0 0 0 0 0 0 0 0 0 0 0 0 0 0 0 0 0 0 0 0 0 0 0 0 0 0 0 0 0 0 0 0 0 0 0 0 0 0 0 0 0 0 0 0 0 0 0 0 0 0 0 0 0 0 0 0 0 0 0 0 0 0 0 0 0 0 3 96 75 4 11 26 41 57 82 104 159 151 156 147 115 100 145 209 190 96 118 146 165 400 498 393 430 509 614 615 566 509 422 386 217 189 369 549 582 813 1113 1266 1359 1198 1156 1214 1130 1021 981 880 1327 1426 1516 1333 1304 1216 1306 1625 1622 1434 1158 969 1006 1728 1954 1550 1404 1490 1304 1295 1403 1332 1229 1294 1383 1534 1444 1369 1206 1185 1197 1178 1198 1223 1165 1173 1225 1283 1240 1222 1247 1249 1238 1216 1207 1220 1250 1258 1246 1221 1189 1182 1171 1076 1061 1055 1065 1061 1131 1064 1061 1262 1175 1285 1385 1393 1244 1575 945 745 634 512 446 412 408 494 494 389 336 325 308 307 321 340 349 374 398 401 366 370 376 376 377 384 422 438 396 378 360 506 500 472 516 428 358 336 332 318 427 486 377 391 381 386 337 348 354 265 239 301 343 394 478 270 228 228 227 249 278 292 431 549 433 442 496 471 486 474 523 358 282 363 501 466 417 391 320 277 302 293 280 327 386 351 575 681 645 777 458 128 6 4 55 205 717 698 668 722 508 313 381 438 286 165 49 0 0 0 0 0 0 0 0 0 0 0 0 0 0 0 85 90 0 0 0 640 576 1553 1604 1181 1017 1019 1064 965 903 1000 1017 993 1009 1030 1010 801 919 1170 1434 1090 1010 1003 44 0 0 0 0 0 0 0 0 0 153 57 20 45 70 18 3 16 35 38 48 74 89 87 95 129 156 137 78 89 112 119
0 0 0 0 0 0 0 0 0 0 0 0 0 0 0 0 0 0 0 0 0 0 0 0 0 0 0 0 0 0 0 0 0 0 0 0 0 0 0 0 0 0 0 0 0 0 0 0 0 0 0 0 0 0 0 0 0 0 0 0 0 0 0 0 0 0 0 0 0 0 0 0 0 0 0 0 0 0 0 0 0 0 0 0 0 0 0 0 0 0 0 0 0 0 0 0 0 0 0 0 80 31 11 5 18 21 43 57 81 132 140 150 168 161 92 76 92 125 186 211 87 94 109 229 365 451 431 446 506 581 467 428 294 232 172 217 335 394 580 941 983 1306 1210 1223 1054 1248 1326 1070 965 856 1028 1130 1276 1417 1350 1127 1131 2009 1946 1095 610 547 683 1784 2177 1217 1152 1310 1272 1184 1407 1274 1292 1453 1480 1453 1477 1295 1201 1191 1149 1133 1147 1200 1125 1151 1201 1258 1255 1278 1241 1224 1302 1242 1219 1220 1220 1266 1246 1215 1178 1179 1119 1091 1063 1092 1073 1051 1049 1055 1303 1201 1138 1170 1409 1350 1381 1051 901 834 642 573 448 644 533 601 565 525 386 351 335 338 390 400 394 422 476 524 579 512 419 428 441 436 475 535 491 422 389 379 403 399 466 365 346 335 333 358 443 451 413 414 384 341 321 300 305 265 255 227 234 275 268 235 238 263 244 288 380 393 491 474 491 484 504 582 655 574 553 329 416 399 650 517 388 333 361 357 398 384 470 412 480 493 590 451 229 34 0 0 0 0 247 837 1319 1067 1026 895 603 300 372 314 261 142 73 0 0 0 0 0 0 0 0 0 0 0 0 0 0 0 4 66 0 0 0 118 1044 1584 1905 1423 1015 1182 1094 1005 1063 1246 967 1218 997 905 1006 781 878 1255 1444 1045 950 1124 36 0 0 0 0 0 0 0 0 0 504 233 125 74 63 17 4 18 32 50 54 54 68 76 112 128 141 112 91 92 95 112
0 0 0 0 0 0 0 0 0 0 0 0 0 0 0 0 0 0 0 0 0 0 0 0 0 0 0 0 0 0 0 0 0 0 0 0 0 0 0 0 0 0 0 0 0 0 0 0 0 0 0 0 0 0 0 0 0 0 0 0 0 0 0 0 0 0 0 0 0 0 0 0 0 0 0 0 0 0 0 0 0 0 0 0 0 0 0 0 0 0 0 0 0 0 0 0 0 0 0 0 22 9 18 14 51 68 75 92 117 129 145 156 158 149 92 63 74 51 74 153 89 54 81 160 146 260 605 322 334 408 323 296 206 187 214 325 365 560 674 857 993 1176 1481 1292 1139 856 852 697 710 772 534 594 561 607 1069 1119 1207 1003 924 623 631 780 1464 2350 1822 1116 1046 1090 1217 1215 1177 1230 1240 1312 1334 1440 1450 1249 1212 1181 1174 1171 1122 1109 1107 1138 1214 1245 1267 1285 1279 1270 1326 1400 1223 1279 1208 1415 1389 1168 1161 1215 1182 1179 1272 1134 1071 1101 1273 1098 1111 1341 1156 1313 1439 1575 948 761 648 633 605 565 478 607 627 654 569 539 462 411 415 406 431 432 440 551 929 696 1188 631 500 520 526 502 492 539 480 433 407 385 383 386 369 357 349 366 541 488 411 459 479 512 489 395 386 331 334 315 273 254 318 335 267 257 280 323 351 455 414 446 547 525 550 537 559 606 634 680 474 333 365 429 555 516 407 328 434 420 487 555 538 665 722 588 252 5 0 0 0 0 0 44 818 1448 1437 1093 1042 898 658 397 402 310 262 211 112 5 0 0 0 0 0 0 0 0 0 0 0 0 0 0 0 0 0 0 0 0 539 1440 2130 2092 1104 1062 1398 1165 1280 1095 975 1230 1205 817 788 687 781 1340 1080 1214 815 1077 13 0 0 0 0 0 0 0 0 0 618 468 237 83 38 17 6 15 32 47 72 66 21 66 104 133 148 81 91 107 118 150
0 0 0 0 0 0 0 0 0 0 0 0 0 0 0 0 0 0 0 0 0 0 0 0 0 0 0 0 0 0 0 0 0 0 0 0 0 0 0 0 0 0 0 0 0 0 0 0 0 0 0 0 0 0 0 0 0 0 0 0 0 0 0 0 0 0 0 0 0 0 0 0 0 0 0 0 0 0 0 0 0 0 0 0 0 0 0 0 0 0 0 0 0 0 0 0 0 0 0 0 0 24 20 32 70 115 129 123 139 141 151 149 154 132 92 45 30 20 36 90 43 33 52 47 83 82 106 157 236 348 306 215 168 109 248 215 358 562 933 1458 1133 1206 1465 1447 797 584 670 655 567 571 629 661 633 810 756 689 820 653 600 661 983 1446 1888 2075 1700 1148 1054 1103 1270 1201 1168 1223 1159 1280 1266 1233 1206 1239 1290 1255 1234 1292 1321 1319 1119 1206 1257 1305 1335 1434 1405 1304 1380 1378 1312 1381 1270 1271 1224 1239 1268 1218 1238 1532 1849 1740 1136 1125 1424 1243 1166 1244 1332 1230 1266 1028 1046 748 829 576 768 674 511 623 985 798 573 478 478 479 481 477 487 593 587 710 1149 1265 1260 1036 895 1075 777 700 565 513 482 458 429 405 476 413 376 367 361 440 691 486 456 522 528 593 587 469 421 378 376 346 381 350 367 381 369 340 330 390 358 382 394 460 540 648 603 681 946 681 609 521 406 379 384 491 749 559 445 422 565 535 512 628 598 512 361 123 0 0 0 0 0 0 0 0 410 330 901 647 885 935 802 572 474 421 395 294 181 81 0 0 0 0 0 0 0 0 0 0 0 0 0 0 0 0 0 0 0 0 0 741 1532 2392 1461 1071 1611 1400 1219 992 1091 1115 1075 908 1072 920 677 1153 1069 1226 886 949 0 0 0 0 0 0 0 0 0 0 0 655 355 91 31 13 2 14 31 47 70 64 25 82 131 137 126 63 77 89 136 157
0 0 0 0 0 0 0 0 0 0 0 0 0 0 0 0 0 0 0 0 0 0 0 0 0 0 0 0 0 0 0 0 0 0 0 0 0 0 0 0 0 0 0 0 0 0 0 0 0 0 0 0 0 0 0 0 0 0 0 0 0 0 0 0 0 0 0 0 0 0 0 0 0 0 0 0 0 0 0 0 0 0 0 0 0 0 0 0 0 0 0 0 0 0 0 0 0 0 0 0 0 63 5 26 116 140 140 141 152 150 140 130 149 105 82 51 8 6 1 8 11 25 51 68 96 82 67 55 117 196 228 193 87 122 157 165 285 398 673 1251 1397 1145 732 560 536 631 641 649 609 633 659 659 672 806 813 657 725 713 716 982 1477 1789 2060 1857 1524 1274 1195 1126 1104 1217 1231 1106 1015 1134 1056 1114 1214 1321 1349 1306 1405 1410 1377 1350 1165 1262 1474 1431 1410 1497 1401 1357 1434 1392 1458 1492 1592 1440 1289 1185 1393 1335 1385 1770 3181 2618 1259 1653 1342 1237 1477 1346 1238 859 756 689 781 565 676 608 730 773 697 802 1030 884 562 586 567 554 543 545 570 654 1246 1645 1786 1617 1470 1726 1481 1246 1168 694 611 520 495 474 458 442 428 411 392 383 407 438 542 525 507 590 558 583 555 492 452 410 370 374 413 405 392 446 551 575 436 426 382 385 419 472 520 599 653 967 809 663 580 604 483 474 635 509 475 458 450 513 502 632 554 684 517 168 0 0 0 0 0 0 0 0 0 0 15 0 0 72 329 531 704 562 521 622 788 481 281 161 97 0 0 0 0 0 0 0 0 0 0 0 0 0 0 0 0 0 0 0 0 90 760 1962 1656 1302 1658 1429 1338 1061 1178 1091 1028 1033 1154 1064 804 1027 668 1077 759 832 0 0 0 0 0 0 0 0 0 0 0 275 343 80 22 3 1 18 28 47 74 70 28 93 129 126 97 77 81 105 111 125
0 0 0 0 0 0 0 0 0 0 0 0 0 0 0 0 0 0 0 0 0 0 0 0 0 0 0 0 0 0 0 0 0 0 0 0 0 0 0 0 0 0 0 0 0 0 0 0 0 0 0 0 0 0 0 0 0 0 0 0 0 0 0 0 0 0 0 0 0 0 0 0 0 0 0 0 0 0 0 0 0 0 0 0 0 0 0 0 0 0 0 0 0 0 0 0 0 0 0 0 0 30 6 26 137 155 134 136 149 121 86 87 89 61 33 28 2 0 0 0 0 15 40 117 173 254 163 55 80 90 87 71 96 319 124 82 381 554 422 635 767 703 670 574 591 534 712 737 960 778 684 740 760 797 879 1251 1451 1086 958 1005 1310 1502 1783 1724 1596 1507 1549 1430 1338 1033 1169 1169 961 982 803 936 1005 1244 1127 1397 1544 1503 1459 1534 1275 1167 1555 1453 1433 1479 1525 1435 1477 1533 1578 1623 1801 1826 1499 1264 1499 1543 1672 1681 1953 1868 1376 1196 1343 1472 1497 1068 1070 978 720 612 478 448 470 513 562 812 1157 1041 964 706 612 857 736 663 752 901 923 797 1309 2049 1750 1588 1521 1331 1198 996 810 942 889 523 524 491 479 472 468 430 408 401 485 492 522 575 523 598 599 585 543 515 488 433 381 392 431 430 423 489 584 602 706 622 474 434 512 548 575 612 756 801 817 808 869 653 663 752 564 474 327 375 315 411 556 845 393 246 46 0 0 0 0 0 0 0 0 0 0 0 73 302 493 367 0 0 463 517 466 437 561 505 456 376 314 143 58 20 0 0 0 0 0 0 0 0 0 0 0 0 0 0 0 0 0 12 257 1237 1581 1845 1563 1427 1388 1126 1196 1045 1068 1273 1137 1025 886 832 808 597 682 746 0 0 0 0 0 0 0 0 0 0 0 0 321 45 9 0 0 13 28 46 73 71 43 93 128 132 94 102 94 111 115 132
0 0 0 0 0 0 0 0 0 0 0 0 0 0 0 0 0 0 0 0 0 0 0 0 0 0 0 0 0 0 0 0 0 0 0 0 0 0 0 0 0 0 0 0 0 0 0 0 0 0 0 0 0 0 0 0 0 0 0 0 0 0 0 0 0 0 0 0 0 0 0 0 0 0 0 0 0 0 0 0 0 0 0 0 0 0 0 0 0 0 0 0 0 0 0 0 0 0 0 0 0 0 17 10 65 142 146 112 104 73 42 24 12 5 1 0 0 0 0 0 0 7 17 63 99 134 162 105 28 31 51 159 240 91 103 591 1087 1073 883 446 548 608 656 527 678 852 919 1036 1254 1221 736 620 927 1106 1300 939 1180 1034 1098 832 1048 1419 1455 1532 1444 1483 1877 1691 1555 1259 1091 868 878 985 849 866 850 908 1109 1200 1415 1549 1678 1730 1586 1206 1443 1537 1517 1600 1594 1558 1678 1757 1603 1669 1742 1831 1695 1523 1638 1910 1876 1835 1726 1922 1443 1222 1516 1545 1032 759 969 819 697 947 463 418 556 680 783 741 1131 1107 1140 982 773 1264 753 837 983 1782 1501 1219 1048 1411 1822 1469 1491 1490 1031 877 625 649 626 1115 759 538 506 515 498 453 420 417 425 447 492 542 559 593 591 566 551 534 477 419 392 500 567 488 448 474 562 546 541 512 557 518 532 635 595 595 742 795 849 809 883 795 965 925 769 552 323 196 429 537 664 530 98 0 0 0 0 0 0 0 0 0 0 0 0 0 79 418 865 1258 782 591 573 559 338 230 179 146 406 540 735 603 443 305 171 130 120 0 0 0 0 0 0 0 0 0 0 0 0 0 0 16 109 452 1394 2325 1811 1205 1301 1161 1157 1143 1077 1173 1211 953 1087 1108 985 646 837 198 0 0 0 0 0 0 0 0 0 0 0 0 167 15 0 0 0 0 30 42 60 40 32 45 90 92 70 117 99 117 124 145
0 0 0 0 0 0 0 0 0 0 0 0 0 0 0 0 0 0 0 0 0 0 0 0 0 0 0 0 0 0 0 0 0 0 0 0 0 0 0 0 0 0 0 0 0 0 0 0 0 0 0 0 0 0 0 0 0 0 0 0 0 0 0 0 0 0 0 0 0 0 0 0 0 0 0 0 0 0 0 0 0 0 0 0 0 0 0 0 0 0 0 0 0 0 0 0 0 0 0 0 0 0 0 8 43 20 87 86 88 77 34 34 0 0 0 0 0 0 0 0 0 0 6 18 49 73 108 154 47 85 174 99 78 84 296 568 760 732 961 1005 607 532 787 887 1072 1181 1190 1235 1111 1088 1141 872 696 642 743 843 1011 998 1079 858 1055 1068 974 1154 1088 1359 1884 1947 1694 1374 843 755 778 830 805 861 867 887 1059 1257 1224 1471 1937 1940 1919 1502 1225 2137 1639 1643 1602 1731 1912 1938 1760 1945 1967 2088 2154 2064 2209 2050 2118 2134 2439 2192 1607 1398 828 748 749 704 545 507 536 484 620 583 676 843 598 896 1234 1171 1451 1176 969 1001 981 1514 1807 1917 1601 1252 1261 1398 1666 1558 1701 1519 818 662 847 690 673 768 737 615 619 546 508 475 444 424 452 542 564 556 572 606 582 548 550 539 435 401 431 623 693 568 497 480 502 574 559 598 675 660 574 714 524 512 612 667 664 630 600 838 1120 786 350 317 182 262 422 219 207 15 0 0 0 0 0 0 0 0 0 0 0 0 0 74 352 990 1548 1292 1256 1105 927 915 1048 779 273 0 0 0 0 89 288 310 110 210 895 558 0 0 0 0 0 0 0 0 0 0 0 0 0 26 109 285 977 1630 1680 1153 1669 1176 1225 1213 1178 1165 1169 835 896 775 1137 707 653 0 0 0 0 0 0 0 0 0 0 0 0 0 71 3 0 0 0 0 15 30 64 52 47 82 105 112 82 112 114 127 137 157
0 0 0 0 0 0 0 0 0 0 0 0 0 0 0 0 0 0 0 0 0 0 0 0 0 0 0 0 0 0 0 0 0 0 0 0 0 0 0 0 0 0 0 0 0 0 0 0 0 0 0 0 0 0 0 0 0 0 0 0 0 0 0 0 0 0 0 0 0 0 0 0 0 0 0 0 0 0 0 0 0 0 0 0 0 0 0 0 0 0 0 0 0 0 0 0 0 0 0 0 0 0 0 0 0 0 0 0 0 0 0 0 0 0 0 0 0 0 0 0 0 0 0 0 17 24 44 58 39 125 276 310 217 235 703 584 1416 969 677 755 760 938 858 875 873 1059 956 1075 1178 1107 909 785 732 698 586 759 1150 1173 1016 910 996 767 572 602 613 1087 1588 1719 1626 1411 1068 734 746 816 943 1082 921 1083 1182 1140 1184 1384 1519 1613 1619 1589 1381 1978 2124 1396 1485 1585 2193 2122 2114 1934 1963 2205 2542 2521 2266 1899 1561 1390 1556 1649 883 1006 857 783 839 721 501 548 624 529 774 563 546 743 600 674 623 721 1616 1562 1267 1481 1796 1882 2271 2036 1893 1558 1395 1678 1674 1754 1577 1248 789 904 1799 1515 762 793 781 621 611 607 568 519 487 484 567 619 572 529 521 552 593 504 488 450 443 418 424 465 524 542 592 527 568 563 609 658 735 746 741 783 537 475 523 597 702 701 698 810 731 709 270 125 0 0 0 0 0 0 0 0 0 0 0 0 0 0 0 0 0 0 286 419 898 1280 1336 1332 1211 1118 1043 1119 1253 1274 1181 1029 640 359 93 0 29 111 37 0 348 604 957 760 0 0 0 0 0 0 0 0 0 0 0 79 123 179 627 1216 1575 1435 1702 1248 1406 1505 1359 1110 1025 928 651 610 883 655 237 0 0 0 0 0 0 0 0 0 0 0 0 0 4 3 0 0 0 0 27 47 71 90 107 127 143 142 103 112 129 137 146 152
0 0 0 0 0 0 0 0 0 0 0 0 0 0 0 0 0 0 0 0 0 0 0 0 0 0 0 0 0 0 0 0 0 0 0 0 0 0 0 0 0 0 0 0 0 0 0 0 0 0 0 0 0 0 0 0 0 0 0 0 0 0 0 0 0 0 0 0 0 0 0 0 0 0 0 0 0 0 0 0 0 0 0 0 0 0 0 0 0 0 0 0 0 0 0 0 0 0 0 0 0 0 0 0 0 0 0 0 0 0 0 0 0 0 0 0 0 0 0 0 0 0 0 0 0 6 15 21 35 86 167 250 315 428 688 630 833 1256 830 664 774 900 753 706 837 725 757 926 1060 1106 1067 710 875 605 565 599 791 944 1037 958 856 669 515 348 322 469 1404 1815 1641 1673 1368 878 731 868 1003 1149 956 1338 1202 1308 1392 1393 1302 1380 1123 995 979 1499 2153 1385 832 1116 1730 2161 1783 1774 2076 2419 2675 2099 1841 1504 1493 1496 1270 1296 999 946 809 689 732 586 512 410 453 438 410 801 525 414 529 458 510 528 661 837 1206 1530 1738 1749 2089 2303 2162 1703 1655 1996 1709 1612 999 876 906 1328 1732 1209 892 1377 929 793 742 712 616 603 587 574 611 577 540 520 506 490 484 481 543 532 522 453 430 473 513 565 563 601 621 585 737 826 898 796 664 638 534 692 483 441 408 566 500 405 262 263 99 0 0 0 0 0 0 0 0 0 0 0 0 0 0 0 0 0 106 428 746 987 1230 915 870 990 961 895 873 1027 1014 988 1026 954 914 775 671 780 800 756 572 401 796 1259 1346 1147 1572 886 0 0 0 0 53 96 0 657 0 8 64 61 510 1015 1660 1477 1513 1531 1252 1547 1642 1248 1154 968 847 1037 1021 685 115 0 0 0 0 0 0 0 0 0 0 0 0 0 25 32 0 0 0 0 14 60 102 120 120 120 129 120 125 142 147 150 150 150
0 0 0 0 0 0 0 0 0 0 0 0 0 0 0 0 0 0 0 0 0 0 0 0 0 0 0 0 0 0 0 0 0 0 0 0 0 0 0 0 0 0 0 0 0 0 0 0 0 0 0 0 0 0 0 0 0 0 0 0 0 0 0 0 0 0 0 0 0 0 0 0 0 0 0 0 0 0 0 0 0 0 0 0 0 0 0 0 0 0 0 0 0 0 0 0 0 0 0 0 0 0 0 0 0 0 0 0 0 0 0 0 0 0 0 0 0 0 0 0 0 0 0 0 0 4 9 10 30 58 89 204 288 402 468 535 520 928 935 922 711 806 749 768 655 587 622 762 662 858 918 601 685 651 546 626 733 821 925 789 929 688 589 576 343 289 446 745 1174 1337 1558 847 857 1029 929 898 1110 1164 1346 1487 1279 1291 1206 1206 1145 1152 1294 998 1249 1461 953 853 932 917 1402 1759 2273 2447 1986 2082 1881 1396 1135 1097 960 1042 872 712 622 533 485 454 386 385 537 438 443 388 408 443 429 450 632 541 597 636 633 1109 1591 1848 1790 2391 2054 1927 1861 1654 1276 1229 954 1376 1183 1379 1485 1159 923 1529 1197 982 958 1180 700 694 666 649 568 553 550 547 525 505 534 531 530 565 556 502 504 516 550 651 601 585 620 601 759 790 846 815 729 680 590 582 637 487 587 427 321 324 403 251 7 0 0 0 0 0 0 0 0 0 0 0 0 0 0 0 0 99 310 612 762 847 956 910 904 910 904 885 903 910 895 881 924 861 854 814 770 813 672 709 586 533 663 813 1048 1519 1184 1961 485 241 613 696 661 510 465 502 281 11 156 201 690 1411 1555 1762 1565 1642 1425 1311 1723 1349 1211 791 947 974 777 494 15 0 0 0 0 0 0 0 0 0 0 0 0 0 7 53 0 0 0 0 7 45 124 154 117 126 120 120 135 137 149 150 150 150
0 0 0 0 0 0 0 0 0 0 0 0 0 0 0 0 0 0 0 0 0 0 0 0 0 0 0 0 0 0 0 0 0 0 0 0 0 0 0 0 0 0 0 0 0 0 0 0 0 0 0 0 0 0 0 0 0 0 0 0 0 0 0 0 0 0 0 0 0 0 0 0 0 0 0 0 0 0 0 0 0 0 0 0 0 0 0 0 0 0 0 0 0 0 0 0 0 0 0 0 0 0 0 0 0 0 0 0 0 0 0 0 0 0 0 0 0 0 0 0 0 0 0 0 0 0 3 4 13 41 81 165 323 352 327 813 712 940 956 707 614 630 649 743 662 664 572 550 687 625 602 594 553 483 529 843 951 871 936 867 630 565 610 716 598 422 274 303 794 1444 696 1191 1142 1317 993 1040 1069 1442 1421 1509 1215 1260 1226 1377 1146 1159 1245 1559 1194 1302 1362 1094 919 1017 1414 1720 1998 2077 2075 2453 2247 1983 1758 1524 1267 995 657 658 573 805 512 380 345 458 611 527 541 574 607 696 844 801 574 786 939 1515 774 998 1636 1502 1840 2143 1925 2139 1732 1739 1763 1469 1125 1846 1772 1059 1115 1523 1355 1087 1142 908 1043 1097 905 803 880 919 644 613 594 579 592 554 587 620 516 513 523 522 528 548 566 571 601 638 694 656 687 852 957 910 828 869 675 704 528 525 621 552 714 872 756 188 0 0 0 0 0 0 0 0 0 0 0 0 0 0 0 9 182 240 515 732 836 1027 935 910 829 857 902 910 910 902 873 853 931 948 867 866 824 708 635 696 723 696 655 672 777 1637 1921 1102 776 561 563 334 326 354 324 87 390 971 984 451 946 1610 1667 1665 1802 1714 1692 1369 1397 1461 1247 996 1104 481 626 20 0 0 0 0 0 0 0 0 0 0 0 0 0 0 5 47 0 0 0 0 2 45 143 211 147 128 124 120 134 150 139 150 139 150
0 0 0 0 0 0 0 0 0 0 0 0 0 0 0 0 0 0 0 0 0 0 0 0 0 0 0 0 0 0 0 0 0 0 0 0 0 0 0 0 0 0 0 0 0 0 0 0 0 0 0 0 0 0 0 0 0 0 0 0 0 0 0 0 0 0 0 0 0 0 0 0 0 0 0 0 0 0 0 0 0 0 0 0 0 0 0 0 0 0 0 0 0 0 0 0 0 0 0 0 0 0 0 0 0 0 0 0 0 0 0 0 0 0 0 0 0 0 0 0 0 0 0 0 0 0 0 2 4 28 72 138 232 257 309 541 692 773 827 644 657 594 655 699 722 851 710 525 573 522 760 645 584 469 472 580 814 904 955 899 709 598 515 663 816 1031 361 311 677 1591 979 1182 1282 980 1035 1238 1429 1329 1400 1260 1206 1308 1220 1213 1229 1163 1267 1925 1299 1473 1560 1538 1549 1565 1698 1948 2239 2717 3009 2764 2069 1814 1793 1840 1960 2028 1269 974 775 806 501 395 464 736 919 955 721 623 797 1153 1120 1257 1048 1338 1970 1546 1700 928 1684 1602 2039 2020 1617 1848 1477 1966 2105 1591 1283 1793 1818 990 1151 1965 1811 1572 1278 1402 1138 898 980 893 1046 794 770 670 693 620 672 661 612 789 754 654 588 585 650 563 564 508 559 656 832 722 870 1039 1019 858 655 822 819 684 586 596 588 716 426 596 296 0 0 0 0 0 0 0 0 0 0 0 0 0 0 7 55 192 309 328 475 876 1036 1220 957 910 883 892 907 910 921 908 877 868 954 923 874 774 647 582 633 924 1176 1182 808 630 630 1149 1631 1278 588 471 354 292 473 554 395 259 424 531 744 1144 971 1193 1542 2110 1815 1830 1620 1552 1408 1473 1501 1126 978 644 395 0 0 0 0 0 0 0 0 0 0 0 0 0 0 0 0 2 0 0 0 0 0 31 122 211 163 145 128 135 132 152 130 150 125 137
0 0 0 0 0 0 0 0 0 0 0 0 0 0 0 0 0 0 0 0 0 0 0 0 0 0 0 0 0 0 0 0 0 0 0 0 0 0 0 0 0 0 0 0 0 0 0 0 0 0 0 0 0 0 0 0 0 0 0 0 0 0 0 0 0 0 0 0 0 0 0 0 0 0 0 0 0 0 0 0 0 0 0 0 0 0 0 0 0 0 0 0 0 0 0 0 0 0 0 0 0 0 0 0 0 0 0 0 0 0 0 0 0 0 0 0 0 0 0 0 0 0 0 0 0 0 0 0 2 9 47 133 204 212 365 561 728 608 960 954 1114 520 667 581 765 914 784 598 607 455 511 647 506 458 474 707 775 805 828 753 679 699 514 501 502 506 422 305 619 878 1016 879 715 831 1488 1197 1320 1361 1309 1275 1232 1163 1329 1420 1279 1093 1145 1689 1252 1243 1426 1502 1626 1678 1660 1652 1801 2003 2117 2041 1840 1751 1607 1563 1862 1482 1140 1275 1738 1127 1020 944 666 771 889 921 834 804 1053 1102 1047 1308 1247 1305 1485 1706 1287 1283 1514 1539 1972 1947 1658 1706 1623 1639 1749 1875 1795 1627 1939 1011 1783 2219 2404 2040 2042 1753 1742 1244 1372 1002 1043 899 861 841 1131 715 882 911 802 721 719 673 595 607 804 584 734 509 506 673 1023 908 961 861 876 545 568 483 432 581 460 762 370 179 54 0 0 0 0 0 0 0 0 0 0 0 0 0 0 0 1 116 254 380 459 610 835 1105 1445 1242 944 910 910 910 976 990 1024 1022 929 925 894 779 748 654 577 519 686 1092 1327 1097 785 696 731 892 1200 990 778 549 429 429 419 347 321 444 437 640 801 584 725 957 1563 1333 1604 1960 1726 1599 1480 1422 1518 1360 738 1040 399 0 0 0 0 0 0 0 0 0 0 0 0 0 0 0 4 4 0 0 0 0 0 30 98 174 171 138 135 142 147 157 132 142 122 127
0 0 0 0 0 0 0 0 0 0 0 0 0 0 0 0 0 0 0 0 0 0 0 0 0 0 0 0 0 0 0 0 0 0 0 0 0 0 0 0 0 0 0 0 0 0 0 0 0 0 0 0 0 0 0 0 0 0 0 0 0 0 0 0 0 0 0 0 0 0 0 0 0 0 0 0 0 0 0 0 0 0 0 0 0 0 0 0 0 0 0 0 0 0 0 0 0 0 0 0 0 0 0 0 0 0 0 0 0 0 0 0 0 0 0 0 0 0 0 0 0 0 0 0 0 0 0 0 0 3 35 91 149 188 290 413 608 681 1139 1072 947 556 656 575 666 954 772 628 586 421 428 801 538 417 554 749 658 673 757 855 677 583 458 374 473 351 287 319 310 484 562 580 498 595 704 1023 1204 1009 1243 1307 1324 1301 1510 1351 1500 1224 958 1480 2086 1136 1125 1286 1553 1639 1676 1495 1409 1311 1738 2325 2140 1889 1417 1147 1038 1095 1115 1911 1105 690 567 542 607 513 646 625 626 811 1232 1147 1140 1062 1386 1278 1744 1127 908 1442 1882 1543 1992 1934 2202 1953 1755 1783 1676 2290 2385 2271 1868 1297 1698 2291 2470 2135 1875 1812 1776 1703 1688 1299 1102 1166 1130 1289 1005 765 914 1025 804 985 1052 663 536 516 558 809 536 380 311 354 675 756 879 747 334 195 137 58 0 0 0 132 7 0 0 0 0 0 0 0 0 0 0 0 0 0 0 0 0 82 188 346 523 727 772 812 971 1145 1318 1090 939 910 910 910 1043 1070 1065 1056 946 926 837 711 650 581 525 573 644 790 807 731 702 770 741 818 943 835 758 717 542 453 363 277 356 432 501 716 934 836 1029 1643 1444 1245 1763 1775 1681 1534 1488 1447 1700 1419 1216 1162 246 0 0 0 0 0 0 0 0 0 0 0 0 0 0 0 11 4 0 0 0 0 0 9 84 165 172 161 153 157 169 160 142 125 138 125
0 0 0 0 0 0 0 0 0 0 0 0 0 0 0 0 0 0 0 0 0 0 0 0 0 0 0 0 0 0 0 0 0 0 0 0 0 0 0 0 0 0 0 0 0 0 0 0 0 0 0 0 0 0 0 0 0 0 0 0 0 0 0 0 0 0 0 0 0 0 0 0 0 0 0 0 0 0 0 0 0 0 0 0 0 0 0 0 0 0 0 0 0 0 0 0 0 0 0 0 0 0 0 0 0 0 0 0 0 0 0 0 0 0 0 0 0 0 0 0 0 0 0 0 0 0 0 0 0 0 21 93 125 182 335 340 558 776 946 804 850 712 483 526 600 872 789 673 514 454 388 579 502 372 463 628 581 645 769 902 756 576 467 338 318 302 284 313 289 577 735 860 602 440 496 1035 1115 989 1198 1161 981 1075 1081 951 945 1029 920 2182 3053 1218 1042 1109 1319 1422 1432 1328 1187 1115 1611 3287 2973 1591 1170 1364 1454 1196 783 833 661 549 424 424 516 528 578 589 761 793 954 1404 1267 1045 1735 1519 2232 2105 1627 1299 1553 1252 1739 1956 1805 1984 1784 2163 2103 2124 2074 1757 1219 1947 1975 2086 2604 2310 1905 1818 1809 1836 2003 1755 1154 1680 1601 1463 1260 768 831 849 912 986 763 558 491 484 492 387 419 311 216 492 445 328 204 82 0 0 0 0 0 0 0 0 0 0 0 0 0 0 0 0 0 0 0 0 0 0 62 157 162 265 395 495 777 887 910 987 1215 1295 1095 1070 936 910 910 910 1025 1007 1030 912 884 837 755 648 597 511 545 596 678 793 863 743 622 664 705 806 1000 711 689 867 638 445 311 410 413 462 491 703 886 952 989 1329 1636 1376 1560 1550 1570 1614 1693 1430 1606 1240 1312 803 155 0 0 0 0 0 0 0 0 0 0 0 0 0 0 0 63 6 0 0 0 0 0 0 68 121 207 182 152 150 159 157 149 142 152 157
0 0 0 0 0 0 0 0 0 0 0 0 0 0 0 0 0 0 0 0 0 0 0 0 0 0 0 0 0 0 0 0 0 0 0 0 0 0 0 0 0 0 0 0 0 0 0 0 0 0 0 0 0 0 0 0 0 0 0 0 0 0 0 0 0 0 0 0 0 0 0 0 0 0 0 0 0 0 0 0 0 0 0 0 0 0 0 0 0 0 0 0 0 0 0 0 0 0 0 0 0 0 0 0 0 0 0 0 0 0 0 0 0 0 0 0 0 0 0 0 0 0 0 0 0 0 0 0 0 0 11 65 107 175 205 290 433 524 607 652 1198 746 761 565 820 697 779 617 703 572 371 381 640 327 436 491 485 592 686 715 714 631 535 422 437 350 381 262 218 390 372 1103 920 508 510 579 992 678 808 890 998 865 797 694 948 1148 846 1444 1371 1136 1162 1006 1074 1161 1253 1199 1140 1053 1291 1723 1741 1357 946 905 769 670 701 945 603 588 454 472 557 837 926 702 864 894 994 1111 1223 1077 1293 1172 1284 2164 1673 1813 1476 1953 1588 1482 1662 1575 1974 2515 2056 1642 1661 1389 1372 2227 2475 2589 2496 2058 1899 1853 1872 2116 2423 2516 1711 1398 1247 952 843 944 968 905 955 868 643 661 580 782 719 594 609 390 466 250 169 82 43 0 0 0 0 0 0 0 0 0 0 0 0 0 0 0 0 0 0 0 0 0 0 225 582 530 559 559 481 585 795 875 891 1006 1465 1257 971 936 914 910 910 910 953 880 921 938 807 738 668 634 569 513 630 729 808 877 830 692 622 632 691 837 940 720 592 847 744 459 350 379 345 422 525 599 798 769 909 1142 1629 1638 1248 1438 1612 1556 1674 1459 1617 1339 1439 866 85 0 0 0 0 0 0 0 0 0 0 0 0 0 0 187 118 9 0 0 0 0 0 0 9 99 194 193 187 187 177 162 149 125 143 152
0 0 0 0 0 0 0 0 0 0 0 0 0 0 0 0 0 0 0 0 0 0 0 0 0 0 0 0 0 0 0 0 0 0 0 0 0 0 0 0 0 0 0 0 0 0 0 0 0 0 0 0 0 0 0 0 0 0 0 0 0 0 0 0 0 0 0 0 0 0 0 0 0 0 0 0 0 0 0 0 0 0 0 0 0 0 0 0 0 0 0 0 0 0 0 0 0 0 0 0 0 0 0 0 0 0 0 0 0 0 0 0 0 0 0 0 0 0 0 0 0 0 0 0 0 0 0 0 0 0 0 37 78 115 147 232 352 521 545 714 759 594 570 465 538 677 672 579 596 420 362 356 437 431 369 351 407 496 536 542 564 558 557 458 517 469 418 273 151 272 204 301 404 393 328 411 537 516 658 736 603 679 985 1083 820 794 897 907 885 1441 1239 945 930 945 982 1167 1033 767 718 734 1020 1562 1129 900 800 657 574 525 623 1065 728 513 534 734 1064 973 1027 1324 1179 1318 1447 1335 1764 1808 1512 1250 1218 1738 1903 2311 2116 2659 2212 1841 2097 2817 2199 1905 1899 1520 1593 2309 3068 3122 2174 1730 2234 2132 2021 2215 1896 2087 2147 1748 1129 899 893 996 1161 1025 972 1118 739 909 964 1031 739 569 629 1149 1047 676 419 60 2 0 0 0 0 0 0 0 0 0 0 0 0 0 0 0 0 0 0 0 0 0 0 295 838 797 697 610 472 482 632 670 740 587 985 1145 949 910 910 910 910 902 842 790 782 857 727 659 631 608 586 646 743 792 742 739 671 652 657 674 717 825 795 747 546 936 838 519 393 353 350 448 483 472 521 644 746 1191 1496 1425 1370 1482 1694 1707 1587 1644 1837 1375 1568 759 0 0 0 0 0 0 0 0 0 0 0 0 0 0 0 180 112 45 30 5 0 0 12 0 7 79 131 157 194 202 202 135 139 135 137 142
0 0 0 0 0 0 0 0 0 0 0 0 0 0 0 0 0 0 0 0 0 0 0 0 0 0 0 0 0 0 0 0 0 0 0 0 0 0 0 0 0 0 0 0 0 0 0 0 0 0 0 0 0 0 0 0 0 0 0 0 0 0 0 0 0 0 0 0 0 0 0 0 0 0 0 0 0 0 0 0 0 0 0 0 0 0 0 0 0 0 0 0 0 0 0 0 0 0 0 0 0 0 0 0 0 0 0 0 0 0 0 0 0 0 0 0 0 0 0 0 0 0 0 0 0 0 0 0 0 0 0 9 29 68 153 292 324 490 462 622 840 597 856 429 545 502 835 614 474 446 559 338 467 346 351 240 468 489 421 406 408 418 350 313 426 541 398 285 163 91 106 152 188 272 313 337 550 618 554 561 400 773 610 624 977 852 1135 1018 882 901 805 856 804 838 969 1036 1016 899 830 571 657 894 957 656 578 534 495 485 517 863 886 521 537 672 885 1247 1592 1679 1549 1800 1775 1598 1701 1728 1784 1687 1299 1501 1731 1796 1908 2305 2907 2414 2468 2494 2622 2409 1945 1732 1561 2158 2512 2397 1888 1808 2495 2848 2355 1903 1751 1664 2516 2432 1460 1172 1551 1319 1288 1131 1178 907 763 1011 1330 1528 1010 1192 781 1525 1810 948 295 11 0 0 0 0 0 0 0 0 0 0 0 0 0 0 0 0 0 0 0 0 0 0 70 310 839 895 651 585 480 467 591 615 746 735 919 1016 967 920 910 910 909 892 780 760 763 707 639 608 590 579 670 829 705 686 718 698 669 676 703 721 746 767 633 522 523 944 803 468 399 362 327 372 424 430 640 600 603 978 1696 1151 928 1275 1886 1522 1614 1689 1548 1413 1989 838 0 0 0 0 0 0 0 0 0 0 0 0 0 0 89 193 30 6 3 7 1 0 18 0 5 65 116 148 200 200 179 120 130 145 149 147
0 0 0 0 0 0 0 0 0 0 0 0 0 0 0 0 0 0 0 0 0 0 0 0 0 0 0 0 0 0 0 0 0 0 0 0 0 0 0 0 0 0 0 0 0 0 0 0 0 0 0 0 0 0 0 0 0 0 0 0 0 0 0 0 0 0 0 0 0 0 0 0 0 0 0 0 0 0 0 0 0 0 0 0 0 0 0 0 0 0 0 0 0 0 0 0 0 0 0 0 0 0 0 0 0 0 0 0 0 0 0 0 0 0 0 0 0 0 0 0 0 0 0 0 0 0 0 0 0 0 0 3 19 52 133 272 385 326 659 643 696 588 423 535 410 627 630 570 510 467 347 346 295 255 266 232 310 377 447 338 364 331 368 307 337 387 184 122 74 53 89 108 115 140 207 219 315 377 385 312 851 1214 724 625 898 874 986 906 584 606 576 767 802 833 764 1013 867 951 683 512 440 553 612 473 445 404 401 420 481 542 505 652 631 683 801 1245 1740 1525 1585 1532 1465 1524 1667 1971 2177 2234 1804 1757 1810 1917 1873 2079 2174 2946 2523 2066 2388 2760 1814 2099 1616 1451 1446 1968 1842 2050 2221 2662 1942 1550 1448 1450 2381 3003 1869 1291 1554 1464 1290 1346 1213 975 1013 1319 1484 1699 1964 1926 1077 940 606 183 52 0 0 0 0 0 0 0 0 0 0 0 0 0 0 0 0 0 0 0 0 0 0 0 314 547 1014 752 610 420 380 420 547 662 865 910 940 935 915 895 910 910 905 880 780 760 747 647 620 595 588 629 774 840 761 766 782 763 727 731 771 779 751 715 579 444 423 956 718 450 373 322 370 465 450 545 610 587 553 832 1546 1412 790 1064 1532 1369 1371 1772 1579 1362 1781 663 0 0 0 0 0 0 0 0 0 0 0 0 0 0 373 215 26 10 5 4 5 9 22 2 0 59 100 143 186 225 175 127 117 135 137 157
0 0 0 0 0 0 0 0 0 0 0 0 0 0 0 0 0 0 0 0 0 0 0 0 0 0 0 0 0 0 0 0 0 0 0 0 0 0 0 0 0 0 0 0 0 0 0 0 0 0 0 0 0 0 0 0 0 0 0 0 0 0 0 0 0 0 0 0 0 0 0 0 0 0 0 0 0 0 0 0 0 0 0 0 0 0 0 0 0 0 0 0 0 0 0 0 0 0 0 0 0 0 0 0 0 0 0 0 0 0 0 0 0 0 0 0 0 0 0 0 0 0 0 0 0 0 0 0 0 0 0 0 16 102 102 147 202 318 392 524 632 528 528 341 503 492 915 505 541 429 466 600 339 326 188 230 346 339 399 461 283 305 335 326 267 173 182 296 61 74 203 181 87 61 124 134 123 136 190 277 641 565 337 542 710 797 829 486 449 518 403 473 535 477 524 710 533 545 506 451 340 428 507 388 296 292 290 330 493 515 562 824 609 641 878 1366 1586 1502 1399 1429 1266 1169 1371 1817 2060 2150 2103 2497 2047 1918 1594 1680 1775 1978 2061 2070 2640 2347 1957 2655 1576 1810 1547 1689 1833 1550 1752 2129 1676 1885 1578 1514 1348 1610 1332 1321 2041 1534 1471 1664 1863 1660 1488 1813 1110 977 848 879 790 403 146 0 0 0 0 0 0 0 0 0 0 0 0 0 0 0 0 0 0 0 0 0 0 0 34 151 450 677 945 735 584 366 322 509 668 877 903 910 916 905 866 882 910 910 904 902 784 760 735 610 610 591 657 735 863 897 831 816 856 837 807 788 787 770 714 684 638 472 422 701 700 432 328 307 309 363 443 493 650 706 600 751 1249 1273 1118 1083 1135 1651 1325 1834 1516 1613 1824 759 0 0 0 0 0 0 0 0 0 0 0 0 0 60 426 196 29 16 9 9 12 18 24 18 0 55 91 96 205 255 189 100 125 140 146 152
0 0 0 0 0 0 0 0 0 0 0 0 0 0 0 0 0 0 0 0 0 0 0 0 0 0 0 0 0 0 0 0 0 0 0 0 0 0 0 0 0 0 0 0 0 0 0 0 0 0 0 0 0 0 0 0 0 0 0 0 0 0 0 0 0 0 0 0 0 0 0 0 0 0 0 0 0 0 0 0 0 0 0 0 0 0 0 0 0 0 0 0 0 0 0 0 0 0 0 0 0 0 0 0 0 0 0 0 0 0 0 0 0 0 0 0 0 0 0 0 0 0 0 0 0 0 0 0 0 0 0 0 10 59 94 158 217 274 366 544 499 470 640 354 400 482 544 484 597 468 385 373 442 412 278 157 251 449 326 516 285 263 299 214 172 158 386 252 35 134 106 250 189 67 8 0 0 20 44 93 195 181 221 407 752 489 445 311 319 308 291 327 355 340 334 342 382 504 456 286 274 373 355 319 248 232 291 323 393 527 451 492 507 636 927 1300 1459 1352 1190 1435 1215 1321 1522 1853 1809 1881 2086 2549 2415 2538 2143 1869 1666 1748 2075 2102 2631 2806 1955 1778 1545 1623 1713 2634 2361 1912 2072 2345 1873 2097 2068 1664 1418 1529 1372 1594 1875 1909 1638 1811 1915 2161 1664 1334 608 401 347 189 131 0 0 0 0 0 0 0 0 0 0 0 0 0 0 0 0 0 0 0 0 0 0 0 54 112 198 435 772 797 1091 760 534 417 468 572 860 910 910 910 951 950 915 895 904 895 882 887 782 760 747 647 602 633 735 857 942 936 870 832 840 867 859 804 772 732 705 682 683 514 401 481 517 487 354 324 282 319 349 399 505 719 673 725 1325 1184 1303 1032 1137 2100 1552 1819 1631 1742 2101 846 0 0 0 0 0 0 0 0 0 0 0 0 0 304 281 90 31 22 18 13 19 26 27 28 0 37 55 97 169 217 190 112 135 135 144 135
0 0 0 0 0 0 0 0 0 0 0 0 0 0 0 0 0 0 0 0 0 0 0 0 0 0 0 0 0 0 0 0 0 0 0 0 0 0 0 0 0 0 0 0 0 0 0 0 0 0 0 0 0 0 0 0 0 0 0 0 0 0 0 0 0 0 0 0 0 0 0 0 0 0 0 0 0 0 0 0 0 0 0 0 0 0 0 0 0 0 0 0 0 0 0 0 0 0 0 0 0 0 0 0 0 0 0 0 0 0 0 0 0 0 0 0 0 0 0 0 0 0 0 0 0 0 0 0 0 0 0 0 0 30 54 121 177 261 284 422 627 545 366 309 280 404 455 497 451 422 324 350 327 364 273 151 338 597 412 564 485 184 216 183 187 114 183 139 21 120 43 54 135 71 0 0 0 0 0 0 10 24 150 205 331 350 257 267 210 243 232 219 238 242 251 274 280 313 326 238 268 310 300 264 211 220 266 275 293 349 464 657 675 760 1134 1137 1314 1211 1062 966 971 1125 1338 1595 1526 1979 1983 2896 2319 3237 2457 2471 2230 1730 1797 2120 2372 2623 2500 2176 1758 1925 2062 2635 3261 2388 2251 2677 2896 2503 2065 1615 1555 1808 1951 1670 1960 2107 1711 1653 1958 1268 635 210 134 52 0 0 0 0 0 0 0 0 0 0 0 0 0 0 0 0 0 0 0 0 15 31 33 24 23 37 213 447 632 672 618 745 863 665 645 680 685 765 890 910 910 910 916 902 909 907 837 780 780 780 796 777 735 722 679 726 865 994 939 797 758 770 869 898 859 808 777 733 699 686 681 556 403 396 422 610 414 312 281 325 348 399 492 691 677 739 999 1184 1147 1022 1380 1793 1870 2029 1875 1972 1654 1170 34 0 0 0 0 0 0 0 0 0 0 0 130 480 213 75 40 31 27 22 26 36 29 38 14 28 89 128 188 210 151 95 135 125 127 142
0 0 0 0 0 0 0 0 0 0 0 0 0 0 0 0 0 0 0 0 0 0 0 0 0 0 0 0 0 0 0 0 0 0 0 0 0 0 0 0 0 0 0 0 0 0 0 0 0 0 0 0 0 0 0 0 0 0 0 0 0 0 0 0 0 0 0 0 0 0 0 0 0 0 0 0 0 0 0 0 0 0 0 0 0 0 0 0 0 0 0 0 0 0 0 0 0 0 0 0 0 0 0 0 0 0 0 0 0 0 0 0 0 0 0 0 0 0 0 0 0 0 0 0 0 0 0 0 0 0 0 0 0 1 21 65 97 207 369 298 502 400 620 667 535 331 386 404 481 388 356 332 269 347 673 424 361 465 418 303 379 239 192 208 93 0 0 0 12 0 0 26 3 0 0 14 0 0 0 0 0 0 50 176 177 230 201 197 164 188 202 175 175 191 185 199 203 233 218 187 267 273 235 204 203 218 229 241 273 299 414 652 789 765 1061 1019 1227 1166 1050 918 942 1185 1255 1390 1391 1748 2014 3168 2552 2449 2707 3310 2704 1759 1717 1824 2015 2706 2589 2087 1879 2112 2166 2991 2980 2123 2166 2829 2956 2348 2444 2522 2051 2239 1875 1928 2062 2305 2130 2054 2034 746 178 15 0 0 0 0 0 0 0 0 0 0 0 0 0 0 0 0 0 0 0 0 38 75 202 142 144 195 179 187 343 415 644 797 627 580 642 752 719 782 740 820 897 910 910 910 910 910 910 910 805 760 760 760 780 730 680 707 739 774 869 982 903 767 780 812 870 876 869 824 791 730 701 680 646 579 415 316 392 662 464 269 308 405 376 492 635 730 806 903 895 1353 1115 1124 1463 1717 2084 1717 1820 1889 1529 1456 153 0 0 0 0 0 0 0 0 0 0 0 632 540 183 75 39 46 38 40 36 42 36 49 23 47 78 136 202 180 139 90 142 150 137 142
0 0 0 0 0 0 0 0 0 0 0 0 0 0 0 0 0 0 0 0 0 0 0 0 0 0 0 0 0 0 0 0 0 0 0 0 0 0 0 0 0 0 0 0 0 0 0 0 0 0 0 0 0 0 0 0 0 0 0 0 0 0 0 0 0 0 0 0 0 0 0 0 0 0 0 0 0 0 0 0 0 0 0 0 0 0 0 0 0 0 0 0 0 0 0 0 0 0 0 0 0 0 0 0 0 0 0 0 0 0 0 0 0 0 0 0 0 0 0 0 0 0 0 0 0 0 0 0 0 0 0 0 0 0 6 32 99 209 260 293 292 372 291 438 431 286 317 332 422 390 328 266 216 598 613 316 160 312 253 188 210 125 0 0 0 0 0 0 9 0 0 0 0 0 0 0 0 0 0 0 0 0 0 0 69 189 174 173 149 143 155 129 129 147 139 148 156 166 158 187 211 217 191 186 222 216 205 212 237 298 454 645 696 834 963 984 1015 1079 1006 1075 1299 1438 1324 1324 1337 1353 1819 2684 3343 2601 2051 2234 2321 2250 1415 1271 1365 2274 2378 2617 2368 2746 2626 2466 2111 2313 2202 1838 1737 1805 1621 2187 2368 1924 2330 2196 2450 1993 2014 1789 858 167 50 0 0 0 0 0 0 0 0 0 0 0 0 0 0 0 0 0 0 0 34 127 137 192 289 282 344 397 476 465 447 540 720 747 731 730 744 840 824 893 906 911 911 910 910 910 910 910 910 895 813 780 760 760 780 757 715 727 772 806 799 838 816 765 774 805 829 815 816 815 789 740 709 651 610 564 417 301 310 475 456 266 346 441 388 463 544 681 991 1072 856 1092 1217 1072 1235 1875 1948 1814 1817 1812 2070 924 0 0 0 0 0 0 0 0 0 0 0 440 1059 714 213 90 48 69 56 47 47 48 44 53 22 60 85 152 212 157 108 122 114 127 146 150
0 0 0 0 0 0 0 0 0 0 0 0 0 0 0 0 0 0 0 0 0 0 0 0 0 0 0 0 0 0 0 0 0 0 0 0 0 0 0 0 0 0 0 0 0 0 0 0 0 0 0 0 0 0 0 0 0 0 0 0 0 0 0 0 0 0 0 0 0 0 0 0 0 0 0 0 0 0 0 0 0 0 0 0 0 0 0 0 0 0 0 0 0 0 0 0 0 0 0 0 0 0 0 0 0 0 0 0 0 0 0 0 0 0 0 0 0 0 0 0 0 0 0 0 0 0 0 0 0 0 0 0 0 0 0 10 64 161 175 234 233 276 302 214 411 316 192 250 311 269 272 319 235 311 231 218 137 141 180 174 0 0 0 0 0 0 0 0 0 0 0 0 0 0 0 0 0 0 0 0 0 0 0 0 0 0 34 86 152 91 67 71 80 96 96 110 126 153 194 197 188 180 182 178 188 190 183 203 300 308 484 625 660 640 764 997 871 1100 1139 974 1244 1349 1149 1278 1037 1153 1691 3460 2779 2408 1937 1870 2029 2524 1475 1116 981 1260 1503 1618 1779 2217 1810 1685 1501 1759 1223 1136 1076 998 1164 1366 1463 1126 1422 1285 1536 1149 705 590 217 28 0 0 0 0 0 0 0 0 0 0 0 0 0 0 0 0 0 0 0 45 132 302 364 342 372 380 588 592 805 760 665 700 715 715 815 835 789 887 928 977 1009 1047 936 910 910 910 943 910 910 820 755 760 760 760 790 797 762 752 811 825 829 820 786 737 752 760 792 782 770 760 763 705 669 594 533 506 395 285 283 342 281 313 358 508 445 439 487 691 1264 1260 810 945 1237 1098 1289 1743 1746 1980 1974 1843 2248 1057 0 0 0 0 0 0 0 0 0 0 272 1027 1150 527 251 112 68 84 69 62 53 51 50 45 45 55 65 158 211 112 79 112 122 135 159 150
0 0 0 0 0 0 0 0 0 0 0 0 0 0 0 0 0 0 0 0 0 0 0 0 0 0 0 0 0 0 0 0 0 0 0 0 0 0 0 0 0 0 0 0 0 0 0 0 0 0 0 0 0 0 0 0 0 0 0 0 0 0 0 0 0 0 0 0 0 0 0 0 0 0 0 0 0 0 0 0 0 0 0 0 0 0 0 0 0 0 0 0 0 0 0 0 0 0 0 0 0 0 0 0 0 0 0 0 0 0 0 0 0 0 0 0 0 0 0 0 0 0 0 0 0 0 0 0 0 0 0 0 0 0 0 0 1 66 102 129 152 188 233 197 241 317 135 263 179 177 165 278 156 137 120 80 57 81 139 0 0 0 0 0 0 0 0 0 0 0 0 0 0 0 0 0 0 0 0 0 0 0 0 0 0 0 0 1 77 46 35 39 50 61 81 97 116 141 177 183 171 173 175 168 163 173 175 222 307 355 546 557 561 601 649 784 914 1121 1128 791 976 923 1106 930 1012 885 1117 1775 2706 2138 1658 1737 1798 1868 2124 1143 915 911 832 995 1029 1264 1129 1109 1351 1217 951 856 802 810 656 755 1165 726 694 392 378 240 148 176 52 1 0 0 0 0 0 0 0 0 0 0 0 0 0 0 0 0 0 0 0 241 397 684 1339 1096 943 1035 1053 948 952 922 958 968 857 835 855 860 877 895 940 995 1014 1022 1187 1238 1248 1243 1223 1143 1020 832 825 835 835 835 815 780 730 695 734 795 789 755 737 737 738 735 757 778 790 722 704 692 600 557 455 410 332 260 225 231 283 339 354 552 440 376 461 604 928 800 741 869 1429 1454 1572 1794 1920 1621 1963 1661 2210 982 0 0 0 0 0 0 0 0 0 193 1106 1725 1307 617 270 145 86 87 90 85 84 85 85 90 85 87 113 145 174 125 115 122 144 157 170 150
0 0 0 0 0 0 0 0 0 0 0 0 0 0 0 0 0 0 0 0 0 0 0 0 0 0 0 0 0 0 0 0 0 0 0 0 0 0 0 0 0 0 0 0 0 0 0 0 0 0 0 0 0 0 0 0 0 0 0 0 0 0 0 0 0 0 0 0 0 0 0 0 0 0 0 0 0 0 0 0 0 0 0 0 0 0 0 0 0 0 0 0 0 0 0 0 0 0 0 0 0 0 0 0 0 0 0 0 0 0 0 0 0 0 0 0 0 0 0 0 0 0 0 0 0 0 0 0 0 0 0 0 0 0 0 0 0 0 54 79 97 170 146 92 151 184 114 162 67 115 45 61 109 0 31 3 9 19 0 0 0 0 0 0 0 0 0 0 0 0 0 0 0 0 0 0 0 0 0 0 0 0 0 0 0 0 0 0 0 0 9 32 61 83 85 89 103 130 150 159 151 159 159 156 145 145 152 202 294 408 473 491 497 546 607 726 894 926 959 689 992 888 1093 844 693 975 1249 1709 2221 2211 1807 1349 1232 1379 1703 1645 1204 869 764 660 654 706 667 704 622 718 831 896 862 825 704 603 423 224 1 0 0 0 64 162 0 0 0 0 0 0 0 0 0 0 0 0 0 0 0 0 0 0 0 0 54 342 700 1332 2057 1792 1384 1212 1257 1145 964 940 966 945 888 872 852 850 864 880 923 985 1024 1047 1252 1340 1337 1295 1262 1145 993 842 842 850 850 850 820 775 705 632 619 707 739 730 730 730 730 730 720 739 734 713 650 650 549 524 424 372 292 243 247 240 277 330 333 503 417 379 452 736 959 667 718 840 1197 1550 1701 1691 1901 1659 1986 1758 2241 1172 0 0 0 0 0 0 0 0 0 617 1805 2140 1013 542 322 157 104 97 92 82 87 90 90 90 90 90 120 165 150 112 130 135 147 150 170 150
0 0 0 0 0 0 0 0 0 0 0 0 0 0 0 0 0 0 0 0 0 0 0 0 0 0 0 0 0 0 0 0 0 0 0 0 0 0 0 0 0 0 0 0 0 0 0 0 0 0 0 0 0 0 0 0 0 0 0 0 0 0 0 0 0 0 0 0 0 0 0 0 0 0 0 0 0 0 0 0 0 0 0 0 0 0 0 0 0 0 0 0 0 0 0 0 0 0 0 0 0 0 0 0 0 0 0 0 0 0 0 0 0 0 0 0 0 0 0 0 0 0 0 0 0 0 0 0 0 0 0 0 0 0 0 0 0 0 0 0 14 47 17 0 0 0 0 0 0 0 0 0 0 0 0 0 0 0 0 0 0 0 0 0 0 0 0 0 0 0 0 0 0 0 0 0 0 0 0 0 0 0 0 0 0 0 0 0 0 0 8 20 38 52 71 73 96 130 146 151 144 128 124 122 125 136 151 180 245 342 433 478 568 590 612 655 768 758 626 859 1187 953 668 790 1201 1135 1290 1433 1731 2002 2138 1242 1476 1375 1452 1838 1738 1299 808 740 772 549 552 552 532 611 659 667 676 745 690 670 266 13 681 288 0 90 185 12 0 0 0 0 0 0 0 0 0 0 0 0 0 0 0 0 0 0 0 14 185 536 1074 1700 1727 1536 1382 1207 981 928 926 920 919 882 900 880 854 852 875 882 916 1001 1040 1075 1233 1335 1329 1300 1247 1147 1004 850 845 850 850 850 819 770 718 667 678 692 673 650 713 722 716 700 691 692 675 653 604 603 565 495 394 322 251 206 206 226 249 317 295 351 358 391 474 811 1049 611 703 958 1269 1276 1787 2023 1959 1923 2000 1893 2309 1742 17 0 0 0 0 0 0 0 243 1535 2425 2207 948 517 345 202 127 100 103 105 90 90 90 92 89 87 129 147 141 110 123 132 138 137 166 137
